ply
format ascii 1.0
comment PYTHON generated
element vertex 634
property float x
property float y
property float z
end_header
1.791999877929999911e+03 5.300000000000000000e+02 3.159000000000000078e-05
1.791000000000000000e+03 5.290000000000000000e+02 3.152999999999999797e-05
1.791999877929999911e+03 5.300000000000000000e+02 3.159000000000000078e-05
1.791000000000000000e+03 5.289099121100000502e+02 -7.299451799999999713e-01
1.791999877929999911e+03 5.298793335000000297e+02 -9.764432899999999638e-01
1.791000000000000000e+03 5.287706909199999927e+02 -1.154042959999999951e+00
1.791999877929999911e+03 5.296517944299999954e+02 -1.636437059999999999e+00
1.791000000000000000e+03 5.284733276399999795e+02 -1.699218150000000094e+00
1.791000000000000000e+03 5.283786010699999451e+02 1.830117940000000054e+00
1.791999877929999911e+03 5.295741577100000086e+02 1.797752859999999897e+00
1.791000000000000000e+03 5.280859375000000000e+02 2.156510110000000147e+00
1.791999877929999911e+03 5.290211181600000145e+02 2.626395940000000095e+00
1.791000000000000000e+03 5.275751342800000430e+02 2.553413630000000101e+00
1.791999877929999911e+03 5.287089233399999557e+02 2.945414539999999803e+00
1.791000000000000000e+03 5.268565063500000178e+02 2.875750780000000173e+00
1.791999877929999911e+03 5.280925293000000238e+02 3.409233089999999855e+00
1.791000000000000000e+03 5.231997070300000132e+02 -1.080222489999999924e+00
1.791000000000000000e+03 5.236213378899999498e+02 -1.830055240000000083e+00
1.791999877929999911e+03 5.227182006799999954e+02 -2.289804460000000041e+00
1.791000000000000000e+03 5.239140014600000086e+02 -2.156447169999999858e+00
1.791999877929999911e+03 5.231564331099999663e+02 -2.813329219999999964e+00
1.791000000000000000e+03 5.244248046899999736e+02 -2.553350689999999812e+00
1.791999877929999911e+03 5.237262573199999451e+02 -3.292376519999999918e+00
1.791000000000000000e+03 5.251434326199999987e+02 -2.875688080000000202e+00
1.791999877929999911e+03 5.244713134800000489e+02 -3.698933600000000155e+00
1.791000000000000000e+03 5.254285278300000073e+02 -2.945807460000000155e+00
1.791999877929999911e+03 5.250065307600000324e+02 -3.874868150000000178e+00
1.791999877929999911e+03 5.228086547899999914e+02 2.415183310000000194e+00
1.791000000000000000e+03 5.237495727499999703e+02 1.986061220000000072e+00
1.791999877929999911e+03 5.231665649399999438e+02 2.823489900000000219e+00
1.791000000000000000e+03 5.239777221699999927e+02 2.217141149999999783e+00
1.791999877929999911e+03 5.235263671899999736e+02 3.147534610000000121e+00
1.791000000000000000e+03 5.247329101599999603e+02 2.720205070000000003e+00
1.791999877929999911e+03 5.244171752900000456e+02 3.676260469999999891e+00
1.791000000000000000e+03 5.252672119100000145e+02 2.909307479999999835e+00
1.791999877929999911e+03 5.250235595699999749e+02 3.879418369999999783e+00
1.791000000000000000e+03 5.259137573199999451e+02 2.998871559999999992e+00
1.791999877929999911e+03 5.258888549800000192e+02 3.998600479999999902e+00
1.791000000000000000e+03 5.265713501000000178e+02 2.945870400000000000e+00
1.791999877929999911e+03 5.267879028300000073e+02 3.923486469999999837e+00
1.791999877929999911e+03 5.271416015600000264e+02 3.834829329999999814e+00
1.791999877929999911e+03 5.292987670899999557e+02 -2.264203549999999954e+00
1.791999877929999911e+03 5.289982299800000192e+02 -2.651189329999999789e+00
1.791000000000000000e+03 5.280676269499999762e+02 -2.174155949999999837e+00
1.791999877929999911e+03 5.286869506799999954e+02 -2.966509100000000121e+00
1.791000000000000000e+03 5.275350341800000251e+02 -2.577522989999999847e+00
1.791999877929999911e+03 5.277866210900000397e+02 -3.579785349999999866e+00
1.791000000000000000e+03 5.269789428699999689e+02 -2.837057349999999811e+00
1.791999877929999911e+03 5.271390380899999855e+02 -3.835733890000000201e+00
1.791000000000000000e+03 5.265747070300000132e+02 -2.945283649999999920e+00
1.791999877929999911e+03 5.266433105500000238e+02 -3.949682709999999819e+00
1.791000000000000000e+03 5.260861816399999498e+02 -2.998808620000000147e+00
1.791999877929999911e+03 5.255210571300000311e+02 -3.972764020000000063e+00
1.791000000000000000e+03 5.258248290999999881e+02 2.994916200000000028e+00
1.791000000000000000e+03 5.262912597700000106e+02 2.985858439999999892e+00
1.791000000000000000e+03 5.252515869100000145e+02 2.905180689999999899e+00
1.791000000000000000e+03 5.267857055700000046e+02 2.895290849999999860e+00
1.791000000000000000e+03 5.273457031299999471e+02 2.681238650000000057e+00
1.791000000000000000e+03 5.248125000000000000e+02 2.755019190000000062e+00
1.791000000000000000e+03 5.261751098600000205e+02 -2.994853260000000184e+00
1.791000000000000000e+03 5.257086792000000059e+02 -2.985795500000000047e+00
1.791000000000000000e+03 5.267483520499999941e+02 -2.905117750000000054e+00
1.791000000000000000e+03 5.252141723600000205e+02 -2.895228149999999889e+00
1.791000000000000000e+03 5.271873779300000251e+02 -2.754956250000000217e+00
1.791000000000000000e+03 5.246541747999999643e+02 -2.681175710000000212e+00
1.791000000000000000e+03 5.276974487300000192e+02 -2.473544840000000189e+00
1.791000000000000000e+03 5.242548217800000430e+02 -2.440132380000000101e+00
1.791000000000000000e+03 5.280588989300000549e+02 -2.181922440000000130e+00
1.791000000000000000e+03 5.238718261699999630e+02 -2.114440919999999835e+00
1.791000000000000000e+03 5.282976684599999544e+02 -1.928834919999999897e+00
1.791000000000000000e+03 5.234938964799999894e+02 -1.649071100000000012e+00
1.791000000000000000e+03 5.286811523400000397e+02 -1.345751169999999997e+00
1.791000000000000000e+03 5.232684936499999822e+02 -1.240629549999999970e+00
1.791000000000000000e+03 5.288901367199999868e+02 -8.043582999999999705e-01
1.791000000000000000e+03 5.230808715800000073e+02 -6.920526599999999862e-01
1.791000000000000000e+03 5.289796142599999484e+02 -3.489443700000000037e-01
1.791000000000000000e+03 5.229999389600000086e+02 3.117000000000000142e-05
1.791000000000000000e+03 5.290000000000000000e+02 4.944399999999999620e-04
1.791000000000000000e+03 5.230203247099999544e+02 3.491593900000000139e-01
1.791000000000000000e+03 5.289190063500000178e+02 6.922643200000000441e-01
1.791000000000000000e+03 5.231098632800000132e+02 8.044701800000000347e-01
1.791000000000000000e+03 5.287313842800000430e+02 1.240692260000000102e+00
1.791000000000000000e+03 5.233187866199999689e+02 1.345813750000000031e+00
1.791000000000000000e+03 5.285060424800000192e+02 1.649133799999999983e+00
1.791000000000000000e+03 5.237022705099999484e+02 1.928897620000000090e+00
1.791000000000000000e+03 5.281281127900000456e+02 2.114503860000000124e+00
1.791000000000000000e+03 5.239410400399999617e+02 2.181985379999999974e+00
1.791000000000000000e+03 5.277451171899999736e+02 2.440195319999999946e+00
1.791000000000000000e+03 5.243024902299999894e+02 2.473607540000000160e+00
1.819000000000000000e+03 5.262334594699999570e+02 3.993210790000000010e+00
1.819000000000000000e+03 5.256115722700000106e+02 3.981133460000000124e+00
1.819000000000000000e+03 5.269978027299999894e+02 3.873563770000000073e+00
1.819000000000000000e+03 5.249522094699999570e+02 3.860377789999999809e+00
1.819000000000000000e+03 5.242055664099999603e+02 3.574974539999999923e+00
1.819000000000000000e+03 5.275832519499999762e+02 3.673348429999999887e+00
1.819000000000000000e+03 5.256631469699999570e+02 -3.985763069999999963e+00
1.819000000000000000e+03 5.264654540999999881e+02 -3.972790719999999887e+00
1.819000000000000000e+03 5.250021362300000192e+02 -3.873501060000000162e+00
1.819000000000000000e+03 5.270725707999999941e+02 -3.853481050000000074e+00
1.819000000000000000e+03 5.244166870100000324e+02 -3.673285480000000103e+00
1.819000000000000000e+03 5.277011108399999557e+02 -3.620181800000000116e+00
1.819000000000000000e+03 5.237366332999999941e+02 -3.298070669999999982e+00
1.819000000000000000e+03 5.283895263699999987e+02 -3.207781080000000173e+00
1.819000000000000000e+03 5.232547607400000516e+02 -2.909240959999999987e+00
1.819000000000000000e+03 5.288556518599999663e+02 -2.800915480000000013e+00
1.819000000000000000e+03 5.229363403300000073e+02 -2.571790459999999889e+00
1.819000000000000000e+03 5.292833252000000357e+02 -2.284566879999999855e+00
1.819000000000000000e+03 5.224249877900000456e+02 -1.794345620000000086e+00
1.819000000000000000e+03 5.296732788100000562e+02 -1.583240989999999959e+00
1.819000000000000000e+03 5.221464843799999471e+02 -1.072554110000000005e+00
1.819000000000000000e+03 5.298734741199999689e+02 -9.978385600000000411e-01
1.819000000000000000e+03 5.220271606400000337e+02 -4.654731999999999759e-01
1.819000000000000000e+03 5.299857788100000562e+02 -3.367965199999999881e-01
1.819000000000000000e+03 5.219999389600000086e+02 3.110999999999999860e-05
1.819000000000000000e+03 5.299727783199999749e+02 4.655359099999999972e-01
1.819000000000000000e+03 5.221078491199999689e+02 9.228096599999999761e-01
1.819000000000000000e+03 5.298534545899999557e+02 1.072616819999999915e+00
1.819000000000000000e+03 5.223580322300000489e+02 1.654245380000000099e+00
1.819000000000000000e+03 5.296201782199999570e+02 1.701227070000000063e+00
1.819000000000000000e+03 5.226585082999999941e+02 2.198834179999999971e+00
1.819000000000000000e+03 5.292077636699999630e+02 2.389581199999999850e+00
1.819000000000000000e+03 5.231624145499999941e+02 2.819327350000000010e+00
1.819000000000000000e+03 5.288009033199999749e+02 2.855673789999999990e+00
1.819000000000000000e+03 5.236730346699999927e+02 3.253583190000000069e+00
1.819000000000000000e+03 5.282845459000000119e+02 3.283416509999999899e+00
1.823620605470000100e+03 3.719999694800000043e+02 6.488939760000000057e+00
1.824631103519999897e+03 3.719999694800000043e+02 6.469314579999999815e+00
1.822378540039999962e+03 3.719999694800000043e+02 6.294512270000000242e+00
1.830500000000000000e+03 3.719999694800000043e+02 2.216999999999999949e-05
1.830455810550000024e+03 3.719999694800000043e+02 -7.564223399999999708e-01
1.828600097660000074e+03 3.719999694800000043e+02 2.216999999999999949e-05
1.830324707029999900e+03 3.719999694800000043e+02 1.499537109999999895e+00
1.830261962889999950e+03 3.719999694800000043e+02 -1.742928859999999913e+00
1.828475952150000012e+03 3.719999694800000043e+02 -1.061173200000000039e+00
1.828188232420000077e+03 3.719999694800000043e+02 -1.902324439999999894e+00
1.828568725589999985e+03 3.719999694800000043e+02 5.353521100000000477e-01
1.828431518549999964e+03 3.719999694800000043e+02 1.233495240000000104e+00
1.828111206049999964e+03 3.719999694800000043e+02 2.063555480000000220e+00
1.827523071289999962e+03 3.719999694800000043e+02 2.957617280000000015e+00
1.829918090820000089e+03 3.719999694800000043e+02 2.688120599999999971e+00
1.827156982420000077e+03 3.719999694800000043e+02 3.345685009999999959e+00
1.829429809570000089e+03 3.719999694800000043e+02 3.573077200000000175e+00
1.826602783199999976e+03 3.719999694800000043e+02 3.792839530000000181e+00
1.825820800779999900e+03 3.719999694800000043e+02 4.224336619999999876e+00
1.828610961910000015e+03 3.719999694800000043e+02 4.581378459999999819e+00
1.825147460939999974e+03 3.719999694800000043e+02 4.454584119999999814e+00
1.824387329099999988e+03 3.719999694800000043e+02 4.583685400000000243e+00
1.823464599610000050e+03 3.719999694800000043e+02 4.568767069999999819e+00
1.822766601560000026e+03 3.719999694800000043e+02 4.431561470000000114e+00
1.819448486329999923e+03 3.719999694800000043e+02 4.640440940000000403e+00
1.822043701170000077e+03 3.719999694800000043e+02 4.163267140000000310e+00
1.827781250000000000e+03 3.719999694800000043e+02 5.287044050000000439e+00
1.821251953129999947e+03 3.719999694800000043e+02 3.689006570000000096e+00
1.818787353519999897e+03 3.719999694800000043e+02 3.883039950000000129e+00
1.820716064449999976e+03 3.719999694800000043e+02 3.221111060000000137e+00
1.820224121089999926e+03 3.719999694800000043e+02 2.627310749999999917e+00
1.818117187500000000e+03 3.719999694800000043e+02 2.764464620000000039e+00
1.819775756839999985e+03 3.719999694800000043e+02 1.820785400000000109e+00
1.819545410160000074e+03 3.719999694800000043e+02 1.147572639999999922e+00
1.817738037110000050e+03 3.719999694800000043e+02 1.742973090000000003e+00
1.819416259769999897e+03 3.719999694800000043e+02 3.873744599999999760e-01
1.817544189449999976e+03 3.719999694800000043e+02 7.564666899999999972e-01
1.819431274410000015e+03 3.719999694800000043e+02 -5.353077699999999606e-01
1.827842773439999974e+03 3.719999694800000043e+02 -2.528601409999999827e+00
1.819568481450000036e+03 3.719999694800000043e+02 -1.233451010000000014e+00
1.817523071289999962e+03 3.719999694800000043e+02 -5.473233499999999863e-01
1.819836791989999938e+03 3.719999694800000043e+02 -1.956352469999999899e+00
1.817705566410000074e+03 3.719999694800000043e+02 -1.621516940000000018e+00
1.820311035160000074e+03 3.719999694800000043e+02 -2.747959849999999982e+00
1.818030883789999962e+03 3.719999694800000043e+02 -2.572795629999999889e+00
1.820778930660000015e+03 3.719999694800000043e+02 -3.283966540000000212e+00
1.829809326170000077e+03 3.719999694800000043e+02 -2.915840150000000186e+00
1.827263061520000065e+03 3.719999694800000043e+02 -3.242168659999999925e+00
1.826675903320000089e+03 3.719999694800000043e+02 -3.741562599999999961e+00
1.826063476560000026e+03 3.719999694800000043e+02 -4.111161710000000191e+00
1.828978393549999964e+03 3.719999694800000043e+02 -4.179188250000000160e+00
1.825204833980000103e+03 3.719999694800000043e+02 -4.439375880000000052e+00
1.824446655270000065e+03 3.719999694800000043e+02 -4.578245639999999561e+00
1.828460937500000000e+03 3.719999694800000043e+02 -4.727544779999999669e+00
1.823731445310000026e+03 3.719999694800000043e+02 -4.592134480000000352e+00
1.824547241210000038e+03 3.719999694800000043e+02 -6.476892949999999871e+00
1.823243530270000065e+03 3.719999694800000043e+02 -6.455813410000000196e+00
1.825621459960000038e+03 3.719999694800000043e+02 -6.294467449999999964e+00
1.822257080079999923e+03 3.719999694800000043e+02 -6.261935229999999741e+00
1.826572753910000074e+03 3.719999694800000043e+02 -5.969117640000000335e+00
1.821235595699999976e+03 3.719999694800000043e+02 -5.882823939999999752e+00
1.827677856450000036e+03 3.719999694800000043e+02 -5.359393120000000010e+00
1.820116943360000050e+03 3.719999694800000043e+02 -5.212673660000000098e+00
1.819359497070000089e+03 3.719999694800000043e+02 -4.551516529999999783e+00
1.822852539060000026e+03 3.719999694800000043e+02 -4.454539780000000171e+00
1.818664550779999900e+03 3.719999694800000043e+02 -3.712450739999999971e+00
1.822179199220000100e+03 3.719999694800000043e+02 -4.224291799999999597e+00
1.821372802730000103e+03 3.719999694800000043e+02 -3.775870559999999987e+00
1.820287597660000074e+03 3.719999694800000043e+02 5.335523130000000336e+00
1.826915893549999964e+03 3.719999694800000043e+02 5.809304710000000149e+00
1.821427246089999926e+03 3.719999694800000043e+02 5.969162459999999726e+00
1.825702514650000012e+03 3.719999694800000043e+02 6.273085120000000181e+00
1.827464111329999923e+03 3.640000000000000000e+02 2.169999999999999891e-05
1.827464111329999923e+03 3.679999694800000043e+02 2.192999999999999840e-05
1.825731933589999926e+03 3.640000000000000000e+02 -2.999978070000000052e+00
1.827464111329999923e+03 3.679999694800000043e+02 2.192999999999999840e-05
1.827464111329999923e+03 3.640000000000000000e+02 2.169999999999999891e-05
1.825731933589999926e+03 3.679999694800000043e+02 3.000021700000000013e+00
1.827464111329999923e+03 3.679999694800000043e+02 2.192999999999999840e-05
1.825731933589999926e+03 3.679999694800000043e+02 3.000021700000000013e+00
1.820535888670000077e+03 3.679999694800000043e+02 2.192999999999999840e-05
1.822268066410000074e+03 3.679999694800000043e+02 -2.999977830000000179e+00
1.825731933589999926e+03 3.679999694800000043e+02 -2.999977830000000179e+00
1.825731933589999926e+03 3.679999694800000043e+02 -2.999977830000000179e+00
1.825731933589999926e+03 3.679999694800000043e+02 -2.999977830000000179e+00
1.822268066410000074e+03 3.679999694800000043e+02 -2.999977830000000179e+00
1.825731933589999926e+03 3.640000000000000000e+02 -2.999978070000000052e+00
1.822268066410000074e+03 3.679999694800000043e+02 -2.999977830000000179e+00
1.820535888670000077e+03 3.679999694800000043e+02 2.192999999999999840e-05
1.820535888670000077e+03 3.640000000000000000e+02 2.169999999999999891e-05
1.822268066410000074e+03 3.640000000000000000e+02 -2.999978070000000052e+00
1.822268066410000074e+03 3.640000000000000000e+02 -2.999978070000000052e+00
1.822268066410000074e+03 3.679999694800000043e+02 3.000021700000000013e+00
1.820535888670000077e+03 3.679999694800000043e+02 2.192999999999999840e-05
1.822268066410000074e+03 3.679999694800000043e+02 3.000021700000000013e+00
1.820535888670000077e+03 3.640000000000000000e+02 2.169999999999999891e-05
1.822268066410000074e+03 3.679999694800000043e+02 3.000021700000000013e+00
1.825731933589999926e+03 3.679999694800000043e+02 3.000021700000000013e+00
1.822268066410000074e+03 3.640000000000000000e+02 3.000021460000000140e+00
1.822268066410000074e+03 3.640000000000000000e+02 3.000021460000000140e+00
1.825731933589999926e+03 3.640000000000000000e+02 3.000021460000000140e+00
1.825731933589999926e+03 3.640000000000000000e+02 3.000021460000000140e+00
1.822268066410000074e+03 3.640000000000000000e+02 -2.999978070000000052e+00
1.820535888670000077e+03 3.640000000000000000e+02 2.169999999999999891e-05
1.818190673829999923e+03 3.640000000000000000e+02 -2.915840629999999933e+00
1.829429809570000089e+03 3.640000000000000000e+02 -3.573033570000000214e+00
1.825731933589999926e+03 3.640000000000000000e+02 -2.999978070000000052e+00
1.829918090820000089e+03 3.640000000000000000e+02 -2.688076730000000136e+00
1.827464111329999923e+03 3.640000000000000000e+02 2.169999999999999891e-05
1.830324707029999900e+03 3.640000000000000000e+02 -1.499493359999999997e+00
1.830500000000000000e+03 3.640000000000000000e+02 2.169999999999999891e-05
1.830455810550000024e+03 3.640000000000000000e+02 7.564662100000000278e-01
1.824379394529999900e+03 3.640000000000000000e+02 6.488939290000000248e+00
1.823368896480000103e+03 3.640000000000000000e+02 6.469314100000000067e+00
1.825621459960000038e+03 3.640000000000000000e+02 6.294511800000000434e+00
1.822297485349999988e+03 3.640000000000000000e+02 6.273084640000000434e+00
1.826572753910000074e+03 3.640000000000000000e+02 5.969161989999999918e+00
1.821084106450000036e+03 3.640000000000000000e+02 5.809304240000000341e+00
1.827677856450000036e+03 3.640000000000000000e+02 5.359437469999999593e+00
1.820218750000000000e+03 3.640000000000000000e+02 5.287043569999999804e+00
1.828460937500000000e+03 3.640000000000000000e+02 4.727589130000000139e+00
1.819389038089999985e+03 3.640000000000000000e+02 4.581377980000000072e+00
1.828978393549999964e+03 3.640000000000000000e+02 4.179232119999999995e+00
1.818570190429999911e+03 3.640000000000000000e+02 3.573076729999999923e+00
1.823620605470000100e+03 3.640000000000000000e+02 -6.488895420000000414e+00
1.824631103519999897e+03 3.640000000000000000e+02 -6.469270230000000232e+00
1.822378540039999962e+03 3.640000000000000000e+02 -6.294467929999999711e+00
1.825702514650000012e+03 3.640000000000000000e+02 -6.273041250000000346e+00
1.821427246089999926e+03 3.640000000000000000e+02 -5.969118120000000083e+00
1.826915893549999964e+03 3.640000000000000000e+02 -5.809260369999999618e+00
1.820322143549999964e+03 3.640000000000000000e+02 -5.359393599999999758e+00
1.827781250000000000e+03 3.640000000000000000e+02 -5.287000179999999716e+00
1.819539062500000000e+03 3.640000000000000000e+02 -4.727545260000000305e+00
1.828610961910000015e+03 3.640000000000000000e+02 -4.581334110000000237e+00
1.819021606450000036e+03 3.640000000000000000e+02 -4.179188729999999907e+00
1.817738037110000050e+03 3.640000000000000000e+02 -1.742822890000000013e+00
1.817544067379999888e+03 3.640000000000000000e+02 -7.560927299999999907e-01
1.817500000000000000e+03 3.640000000000000000e+02 1.024680000000000035e-03
1.822268066410000074e+03 3.640000000000000000e+02 3.000021460000000140e+00
1.817675292970000100e+03 3.640000000000000000e+02 1.499859089999999950e+00
1.818081909179999911e+03 3.640000000000000000e+02 2.688120130000000163e+00
1.825731933589999926e+03 3.640000000000000000e+02 3.000021460000000140e+00
1.829809326170000077e+03 3.640000000000000000e+02 2.915884020000000021e+00
1.830261962889999950e+03 3.640000000000000000e+02 1.742972610000000033e+00
1.830500000000000000e+03 3.640000000000000000e+02 2.169999999999999891e-05
1.830377807620000112e+03 3.640000000000000000e+02 -1.255001779999999956e+00
1.830500000000000000e+03 3.719999694800000043e+02 2.216999999999999949e-05
1.830295288089999985e+03 3.719999694800000043e+02 -1.619325399999999915e+00
1.830377807620000112e+03 3.719999694800000043e+02 1.255045530000000076e+00
1.830255371089999926e+03 3.719999694800000043e+02 1.767725940000000051e+00
1.830310546879999947e+03 3.640000000000000000e+02 1.559671880000000010e+00
1.830109741210000038e+03 3.640000000000000000e+02 2.218444110000000080e+00
1.828520263670000077e+03 3.640000000000000000e+02 -4.671292300000000175e+00
1.827489013670000077e+03 3.640000000000000000e+02 -5.484603400000000129e+00
1.828480224610000050e+03 3.719999694800000043e+02 -4.709846500000000269e+00
1.828919433589999926e+03 3.640000000000000000e+02 -4.248428819999999995e+00
1.829161010739999938e+03 3.719999694800000043e+02 -3.952453370000000188e+00
1.829698242189999974e+03 3.640000000000000000e+02 -3.127419709999999853e+00
1.830005493160000015e+03 3.719999694800000043e+02 -2.487744810000000140e+00
1.830242553710000038e+03 3.640000000000000000e+02 -1.813032750000000082e+00
1.826236938479999935e+03 3.640000000000000000e+02 -6.102936739999999638e+00
1.827430175779999900e+03 3.719999694800000043e+02 -5.521303650000000118e+00
1.819625122070000089e+03 3.640000000000000000e+02 -4.807791230000000304e+00
1.819186645510000062e+03 3.640000000000000000e+02 -4.368756290000000320e+00
1.819588867189999974e+03 3.719999694800000043e+02 -4.774711609999999773e+00
1.820569824220000100e+03 3.640000000000000000e+02 -5.521304129999999866e+00
1.820891479489999938e+03 3.719999694800000043e+02 -5.708616260000000331e+00
1.821715942379999888e+03 3.640000000000000000e+02 -6.085471629999999799e+00
1.822213012700000036e+03 3.719999694800000043e+02 -6.249881270000000377e+00
1.822382202150000012e+03 3.640000000000000000e+02 -6.295668130000000140e+00
1.822850830079999923e+03 3.719999694800000043e+02 -6.397577759999999891e+00
1.823169555660000015e+03 3.640000000000000000e+02 -6.446799760000000212e+00
1.824709350589999985e+03 3.719999694800000043e+02 -6.461273190000000000e+00
1.825459716800000024e+03 3.640000000000000000e+02 -6.334410669999999577e+00
1.825604248050000024e+03 3.719999694800000043e+02 -6.299227239999999561e+00
1.826284057620000112e+03 3.719999694800000043e+02 -6.085471150000000051e+00
1.818525634769999897e+03 3.640000000000000000e+02 -3.505202049999999847e+00
1.819130126949999976e+03 3.719999694800000043e+02 -4.305493829999999633e+00
1.817890258789999962e+03 3.640000000000000000e+02 -2.218400719999999993e+00
1.818136108400000012e+03 3.719999694800000043e+02 -2.804672000000000054e+00
1.817689453129999947e+03 3.640000000000000000e+02 -1.559628489999999923e+00
1.817744628910000074e+03 3.719999694800000043e+02 -1.767681719999999901e+00
1.817500000000000000e+03 3.640000000000000000e+02 2.169999999999999891e-05
1.817622192379999888e+03 3.719999694800000043e+02 -1.255001309999999926e+00
1.817500000000000000e+03 3.640000000000000000e+02 2.169999999999999891e-05
1.817622192379999888e+03 3.640000000000000000e+02 1.255045060000000046e+00
1.817500000000000000e+03 3.719999694800000043e+02 2.216999999999999949e-05
1.817500000000000000e+03 3.719999694800000043e+02 2.216999999999999949e-05
1.817757446289999962e+03 3.640000000000000000e+02 1.813076139999999947e+00
1.817704711910000015e+03 3.719999694800000043e+02 1.619369630000000004e+00
1.829863891599999988e+03 3.719999694800000043e+02 2.804716350000000080e+00
1.829474365230000103e+03 3.640000000000000000e+02 3.505245210000000000e+00
1.828869873050000024e+03 3.719999694800000043e+02 4.305538649999999912e+00
1.828813354489999938e+03 3.640000000000000000e+02 4.368800160000000155e+00
1.828411132810000026e+03 3.719999694800000043e+02 4.774756430000000051e+00
1.828374877929999911e+03 3.640000000000000000e+02 4.807835100000000139e+00
1.827430175779999900e+03 3.640000000000000000e+02 5.521347519999999953e+00
1.827108520510000062e+03 3.719999694800000043e+02 5.708661079999999721e+00
1.826284057620000112e+03 3.640000000000000000e+02 6.085515499999999633e+00
1.825786987299999964e+03 3.719999694800000043e+02 6.249926089999999768e+00
1.825617797849999988e+03 3.640000000000000000e+02 6.295711520000000228e+00
1.825149169920000077e+03 3.719999694800000043e+02 6.397622590000000109e+00
1.824830444339999985e+03 3.640000000000000000e+02 6.446843620000000108e+00
1.823290649410000015e+03 3.719999694800000043e+02 6.461318020000000217e+00
1.822540283199999976e+03 3.640000000000000000e+02 6.334454059999999664e+00
1.822395751949999976e+03 3.719999694800000043e+02 6.299271580000000093e+00
1.821763061520000065e+03 3.640000000000000000e+02 6.102980610000000361e+00
1.821715942379999888e+03 3.719999694800000043e+02 6.085515980000000269e+00
1.820569824220000100e+03 3.719999694800000043e+02 5.521347999999999701e+00
1.820510986329999923e+03 3.640000000000000000e+02 5.484647269999999963e+00
1.819519775389999950e+03 3.719999694800000043e+02 4.709890839999999912e+00
1.819479736329999923e+03 3.640000000000000000e+02 4.671336170000000010e+00
1.819080566410000074e+03 3.640000000000000000e+02 4.248472210000000082e+00
1.818838989260000062e+03 3.719999694800000043e+02 3.952498199999999962e+00
1.818301757810000026e+03 3.640000000000000000e+02 3.127462860000000067e+00
1.817994506839999985e+03 3.719999694800000043e+02 2.487789149999999783e+00
1.824980590820000089e+03 3.724535522499999729e+02 3.896664379999999817e+00
1.825643188479999935e+03 3.724535522499999729e+02 3.666834590000000116e+00
1.824979492189999974e+03 3.725999755899999855e+02 3.878219839999999863e+00
1.825633666989999938e+03 3.725999755899999855e+02 3.651051040000000025e+00
1.824000000000000000e+03 3.725999755899999855e+02 4.000021929999999948e+00
1.824000000000000000e+03 3.724535827600000175e+02 4.018161769999999855e+00
1.824000000000000000e+03 3.723545227100000261e+02 4.052542210000000367e+00
1.824989013670000077e+03 3.723546142600000053e+02 3.929945710000000147e+00
1.824000000000000000e+03 3.722604064899999798e+02 4.105374809999999819e+00
1.824000000000000000e+03 3.724530334500000208e+02 4.018292429999999804e+00
1.824000000000000000e+03 3.725999755899999855e+02 4.000021929999999948e+00
1.823019409179999911e+03 3.724535522499999729e+02 3.896664379999999817e+00
1.824000000000000000e+03 3.723549194299999954e+02 4.052367689999999634e+00
1.823023559570000089e+03 3.725999755899999855e+02 3.879391669999999959e+00
1.823010986329999923e+03 3.723546142600000053e+02 3.929945710000000147e+00
1.824000000000000000e+03 3.722604064899999798e+02 4.105374809999999819e+00
1.822202392579999923e+03 3.725999755899999855e+02 3.574142929999999829e+00
1.822194702150000012e+03 3.724535522499999729e+02 3.589764119999999892e+00
1.822179199220000100e+03 3.723546142600000053e+02 3.620424270000000000e+00
1.821584838870000112e+03 3.725999755899999855e+02 3.191323039999999889e+00
1.821576171879999947e+03 3.724535522499999729e+02 3.204758640000000103e+00
1.820922363279999900e+03 3.725999755899999855e+02 2.560373779999999932e+00
1.821555419920000077e+03 3.723546142600000053e+02 3.232130290000000183e+00
1.820512207029999900e+03 3.725999755899999855e+02 1.958350180000000051e+00
1.820909790039999962e+03 3.724535522499999729e+02 2.568289280000000119e+00
1.820883422849999988e+03 3.723546142600000053e+02 2.590224270000000217e+00
1.820164916989999938e+03 3.725999755899999855e+02 1.141712429999999889e+00
1.820077880860000050e+03 3.725999755899999855e+02 7.938202600000000553e-01
1.820149169920000077e+03 3.724535522499999729e+02 1.147295589999999921e+00
1.820495117189999974e+03 3.724535522499999729e+02 1.965061069999999965e+00
1.820465209960000038e+03 3.723546142600000053e+02 1.981844429999999990e+00
1.820116333010000062e+03 3.723546142600000053e+02 1.157094360000000099e+00
1.820001342770000065e+03 3.725999755899999855e+02 -1.097681499999999949e-01
1.820010986329999923e+03 3.724535522499999729e+02 4.836477900000000218e-01
1.819977050779999900e+03 3.723546142600000053e+02 4.877784299999999851e-01
1.820808715820000089e+03 3.725999755899999855e+02 -2.415288930000000001e+00
1.821348144529999900e+03 3.725999755899999855e+02 -2.998555420000000193e+00
1.820795288089999985e+03 3.724535522499999729e+02 -2.423844809999999850e+00
1.820426879879999888e+03 3.725999755899999855e+02 -1.799324149999999900e+00
1.820410278320000089e+03 3.724535522499999729e+02 -1.805308820000000036e+00
1.820120727539999962e+03 3.725999755899999855e+02 -9.769099999999999451e-01
1.820103393549999964e+03 3.724535522499999729e+02 -9.806144199999999866e-01
1.819994628910000074e+03 3.724535522499999729e+02 -3.203838500000000256e-01
1.819960449220000100e+03 3.723546142600000053e+02 -3.231204200000000193e-01
1.820070068360000050e+03 3.723546142600000053e+02 -9.889899500000000065e-01
1.820379638670000077e+03 3.723546142600000053e+02 -1.820728059999999981e+00
1.820767822269999897e+03 3.723546142600000053e+02 -2.444546939999999946e+00
1.820725708010000062e+03 3.722603149400000007e+02 -2.476490969999999958e+00
1.820332275389999950e+03 3.722603149400000007e+02 -1.844520329999999930e+00
1.820018798829999923e+03 3.722603149400000007e+02 -1.001913669999999978e+00
1.819907714839999926e+03 3.722603149400000007e+02 -3.273430199999999846e-01
1.819924438479999935e+03 3.722603149400000007e+02 4.941520099999999749e-01
1.820065551760000062e+03 3.722603149400000007e+02 1.172214150000000066e+00
1.820418945310000026e+03 3.722603149400000007e+02 2.007741450000000150e+00
1.820842651370000112e+03 3.722603149400000007e+02 2.624071359999999853e+00
1.821523437500000000e+03 3.722603149400000007e+02 3.274365190000000148e+00
1.822155517579999923e+03 3.722603149400000007e+02 3.667732949999999992e+00
1.822998046879999947e+03 3.722603149400000007e+02 3.981298690000000029e+00
1.822135253910000074e+03 3.722025146500000119e+02 3.708030939999999998e+00
1.822987060550000024e+03 3.722025146500000119e+02 4.025042530000000340e+00
1.821496215820000089e+03 3.722025146500000119e+02 3.310341359999999788e+00
1.820807983400000012e+03 3.722025146500000119e+02 2.652902600000000000e+00
1.820379638670000077e+03 3.722025146500000119e+02 2.029800890000000191e+00
1.820022216800000024e+03 3.722025146500000119e+02 1.185093280000000027e+00
1.819879638670000077e+03 3.722025146500000119e+02 4.995811600000000241e-01
1.819862670900000012e+03 3.722025146500000119e+02 -3.309398900000000143e-01
1.819974975589999985e+03 3.722025146500000119e+02 -1.012922289999999892e+00
1.820291992189999974e+03 3.722025146500000119e+02 -1.864786980000000094e+00
1.820689697269999897e+03 3.722025146500000119e+02 -2.503700970000000137e+00
1.820610107420000077e+03 3.721123962400000096e+02 -2.563915489999999853e+00
1.820202880860000050e+03 3.721123962400000096e+02 -1.909635540000000020e+00
1.819878173829999923e+03 3.721123962400000096e+02 -1.037283540000000004e+00
1.819763183589999926e+03 3.721123962400000096e+02 -3.388995200000000096e-01
1.819780639650000012e+03 3.721123962400000096e+02 5.115955500000000100e-01
1.819926635739999938e+03 3.721123962400000096e+02 1.213594199999999956e+00
1.820292602539999962e+03 3.721123962400000096e+02 2.078617100000000217e+00
1.820731201170000077e+03 3.721123962400000096e+02 2.716704369999999980e+00
1.821436035160000074e+03 3.721123962400000096e+02 3.389954330000000127e+00
1.822090332029999900e+03 3.721123962400000096e+02 3.797208309999999809e+00
1.820653808589999926e+03 3.720540771500000119e+02 2.781061409999999956e+00
1.821375366210000038e+03 3.720540771500000119e+02 3.470260380000000033e+00
1.820204711910000015e+03 3.720540771500000119e+02 2.127857919999999847e+00
1.819830078129999947e+03 3.720540771500000119e+02 1.242343189999999931e+00
1.819680541989999938e+03 3.720540771500000119e+02 5.237144799999999822e-01
1.819662841800000024e+03 3.720540771500000119e+02 -3.469284200000000151e-01
1.819780639650000012e+03 3.720540771500000119e+02 -1.061856750000000016e+00
1.820112792970000100e+03 3.720540771500000119e+02 -1.954874280000000075e+00
1.820529785160000074e+03 3.720540771500000119e+02 -2.624654290000000056e+00
1.820434814449999976e+03 3.720141906700000050e+02 -2.696508169999999982e+00
1.820006469729999935e+03 3.720141906700000050e+02 -2.008392329999999948e+00
1.819665039060000026e+03 3.720141906700000050e+02 -1.090927119999999917e+00
1.819544067379999888e+03 3.720141906700000050e+02 -3.564266300000000220e-01
1.819562255860000050e+03 3.720141906700000050e+02 5.380511900000000125e-01
1.819413574220000100e+03 3.719999694800000043e+02 -3.651323899999999734e-01
1.819538574220000100e+03 3.719999694800000043e+02 -1.122799749999999985e+00
1.819890869139999950e+03 3.719999694800000043e+02 -2.069857600000000186e+00
1.819431396480000103e+03 3.719999694800000043e+02 5.541014100000000164e-01
1.819545654300000024e+03 3.719999694800000043e+02 1.149548650000000061e+00
1.819743530270000065e+03 3.719999694800000043e+02 1.752593870000000109e+00
1.819715942379999888e+03 3.720141906700000050e+02 1.276353360000000103e+00
1.820213989260000062e+03 3.719999694800000043e+02 2.615447520000000026e+00
1.820100952150000012e+03 3.720141906700000050e+02 2.186110259999999972e+00
1.820704467770000065e+03 3.719999694800000043e+02 3.210142610000000118e+00
1.820562133789999962e+03 3.720141906700000050e+02 2.857195850000000092e+00
1.821222534179999911e+03 3.719999694800000043e+02 3.671380759999999910e+00
1.821303466800000024e+03 3.720141906700000050e+02 3.565262559999999858e+00
1.821934448239999938e+03 3.719999694800000043e+02 4.111432549999999964e+00
1.822880737299999964e+03 3.719999694800000043e+02 4.462410929999999887e+00
1.824000000000000000e+03 3.719999694800000043e+02 4.600021840000000140e+00
1.822909057620000112e+03 3.720141906700000050e+02 4.335001469999999912e+00
1.824000000000000000e+03 3.720142211900000007e+02 4.470142840000000284e+00
1.821991577150000012e+03 3.720141906700000050e+02 3.993577720000000220e+00
1.822938110349999988e+03 3.720540771500000119e+02 4.219488140000000165e+00
1.824000000000000000e+03 3.720540466300000162e+02 4.351182460000000418e+00
1.824000000000000000e+03 3.721123352100000261e+02 4.250490669999999582e+00
1.822045043950000036e+03 3.720540771500000119e+02 3.887161970000000188e+00
1.822962646480000103e+03 3.721123962400000096e+02 4.121843809999999664e+00
1.824000000000000000e+03 3.722024536100000205e+02 4.150628089999999659e+00
1.824000000000000000e+03 3.721123657200000139e+02 4.250449660000000129e+00
1.824000000000000000e+03 3.720541992199999868e+02 4.350846770000000419e+00
1.825037353519999897e+03 3.721123962400000096e+02 4.121843809999999664e+00
1.824000000000000000e+03 3.722024536100000205e+02 4.150628089999999659e+00
1.824000000000000000e+03 3.720141601600000172e+02 4.470301629999999804e+00
1.824000000000000000e+03 3.719999694800000043e+02 4.600021840000000140e+00
1.825091064449999976e+03 3.720141906700000050e+02 4.335001469999999912e+00
1.825122436520000065e+03 3.719999694800000043e+02 4.460950369999999943e+00
1.825881713870000112e+03 3.719999694800000043e+02 4.197365279999999643e+00
1.825061889650000012e+03 3.720540771500000119e+02 4.219488140000000165e+00
1.826603515629999947e+03 3.719999694800000043e+02 3.792214159999999890e+00
1.827047729489999938e+03 3.719999694800000043e+02 3.445373299999999972e+00
1.826530639650000012e+03 3.720141906700000050e+02 3.684792519999999794e+00
1.825828002929999911e+03 3.720141906700000050e+02 4.079318050000000362e+00
1.825779296879999947e+03 3.720540771500000119e+02 3.970618009999999920e+00
1.826463378910000074e+03 3.720540771500000119e+02 3.586605070000000062e+00
1.825738037110000050e+03 3.721123962400000096e+02 3.878732920000000028e+00
1.826406372070000089e+03 3.721123962400000096e+02 3.503606560000000147e+00
1.827668701170000077e+03 3.719999694800000043e+02 2.774771690000000124e+00
1.828109252929999911e+03 3.719999694800000043e+02 2.067172999999999927e+00
1.827565185550000024e+03 3.720141906700000050e+02 2.696552280000000135e+00
1.826961181639999950e+03 3.720141906700000050e+02 3.348731990000000103e+00
1.826882202150000012e+03 3.720540771500000119e+02 3.259499550000000134e+00
1.827470214839999926e+03 3.720540771500000119e+02 2.624698400000000209e+00
1.826815429689999974e+03 3.721123962400000096e+02 3.184070830000000019e+00
1.827390014650000012e+03 3.721123962400000096e+02 2.563959600000000005e+00
1.828459960939999974e+03 3.719999694800000043e+02 1.126506809999999970e+00
1.827993530270000065e+03 3.720141906700000050e+02 2.008436440000000101e+00
1.827887207029999900e+03 3.720540771500000119e+02 1.954918500000000003e+00
1.827797119139999950e+03 3.721123962400000096e+02 1.909679770000000110e+00
1.828585083010000062e+03 3.719999694800000043e+02 3.689317400000000080e-01
1.828334960939999974e+03 3.720141906700000050e+02 1.090971350000000006e+00
1.828219360349999988e+03 3.720540771500000119e+02 1.061900969999999944e+00
1.828121826170000077e+03 3.721123962400000096e+02 1.037327770000000093e+00
1.828600097660000074e+03 3.719999694800000043e+02 2.216999999999999949e-05
1.828455932620000112e+03 3.720141906700000050e+02 3.564709999999999823e-01
1.828337158199999976e+03 3.720540771500000119e+02 3.469727899999999754e-01
1.828236816410000074e+03 3.721123962400000096e+02 3.389438699999999804e-01
1.828566284179999911e+03 3.719999694800000043e+02 -5.538717499999999960e-01
1.828437744139999950e+03 3.720141906700000050e+02 -5.380068399999999862e-01
1.828319458010000062e+03 3.720540771500000119e+02 -5.236701400000000062e-01
1.828219360349999988e+03 3.721123962400000096e+02 -5.115511999999999837e-01
1.828408569339999985e+03 3.719999694800000043e+02 -1.313016299999999914e+00
1.828284057620000112e+03 3.720141906700000050e+02 -1.276309130000000014e+00
1.828012207029999900e+03 3.719999694800000043e+02 -2.249850509999999915e+00
1.828169921879999947e+03 3.720540771500000119e+02 -1.242298960000000063e+00
1.828073364260000062e+03 3.721123962400000096e+02 -1.213549970000000089e+00
1.827537597660000074e+03 3.719999694800000043e+02 -2.939987659999999892e+00
1.826774658199999976e+03 3.719999694800000043e+02 -3.668649910000000069e+00
1.827437866210000038e+03 3.720141906700000050e+02 -2.857151749999999879e+00
1.827899047849999988e+03 3.720141906700000050e+02 -2.186065909999999946e+00
1.827795288089999985e+03 3.720540771500000119e+02 -2.127813580000000204e+00
1.827346191410000074e+03 3.720540771500000119e+02 -2.781017299999999803e+00
1.827707397460000038e+03 3.721123962400000096e+02 -2.078572750000000191e+00
1.827268798829999923e+03 3.721123962400000096e+02 -2.716660019999999953e+00
1.826067260739999938e+03 3.719999694800000043e+02 -4.109247210000000372e+00
1.826696533199999976e+03 3.720141906700000050e+02 -3.565218209999999832e+00
1.826624633789999962e+03 3.720540771500000119e+02 -3.470216269999999881e+00
1.826563964839999926e+03 3.721123962400000096e+02 -3.389909980000000100e+00
1.825954956049999964e+03 3.720540771500000119e+02 -3.887117860000000036e+00
1.825909667970000100e+03 3.721123962400000096e+02 -3.797164200000000100e+00
1.826008422849999988e+03 3.720141906700000050e+02 -3.993533129999999876e+00
1.825061889650000012e+03 3.720540771500000119e+02 -4.219443319999999886e+00
1.825037353519999897e+03 3.721123962400000096e+02 -4.121798990000000273e+00
1.825126586910000015e+03 3.719999694800000043e+02 -4.459905149999999985e+00
1.825091064449999976e+03 3.720141906700000050e+02 -4.334956649999999634e+00
1.824000000000000000e+03 3.719999694800000043e+02 -4.599977489999999669e+00
1.824000000000000000e+03 3.720142211900000007e+02 -4.470098499999999753e+00
1.824000000000000000e+03 3.720540466300000162e+02 -4.351137640000000140e+00
1.824000000000000000e+03 3.721123352100000261e+02 -4.250445840000000253e+00
1.824000000000000000e+03 3.722024536100000205e+02 -4.150587080000000206e+00
1.825012939449999976e+03 3.722025146500000119e+02 -4.024997710000000062e+00
1.825864746089999926e+03 3.722025146500000119e+02 -3.707986829999999845e+00
1.826503784179999911e+03 3.722025146500000119e+02 -3.310297250000000080e+00
1.827192016599999988e+03 3.722025146500000119e+02 -2.652858499999999786e+00
1.827620361329999923e+03 3.722025146500000119e+02 -2.029756550000000104e+00
1.827977783199999976e+03 3.722025146500000119e+02 -1.185049060000000098e+00
1.828120361329999923e+03 3.722025146500000119e+02 -4.995368099999999978e-01
1.828137329099999988e+03 3.722025146500000119e+02 3.309842299999999904e-01
1.828025024410000015e+03 3.722025146500000119e+02 1.012966510000000042e+00
1.827708007810000026e+03 3.722025146500000119e+02 1.864831209999999961e+00
1.827310302730000103e+03 3.722025146500000119e+02 2.503745320000000163e+00
1.826749389650000012e+03 3.722025146500000119e+02 3.109292749999999828e+00
1.826349853519999897e+03 3.722025146500000119e+02 3.421324489999999940e+00
1.825697265629999947e+03 3.722025146500000119e+02 3.787640810000000080e+00
1.825012939449999976e+03 3.722025146500000119e+02 4.025042530000000340e+00
1.825678833010000062e+03 3.722603149400000007e+02 3.746477599999999963e+00
1.825001953129999947e+03 3.722603149400000007e+02 3.981298690000000029e+00
1.826324218750000000e+03 3.722603149400000007e+02 3.384142399999999995e+00
1.826719482420000077e+03 3.722603149400000007e+02 3.075501919999999778e+00
1.827274291989999938e+03 3.722603149400000007e+02 2.476535319999999984e+00
1.827667724610000050e+03 3.722603149400000007e+02 1.844564560000000020e+00
1.827981201170000077e+03 3.722603149400000007e+02 1.001957889999999907e+00
1.828092285160000074e+03 3.722603149400000007e+02 3.273874199999999846e-01
1.828075561520000065e+03 3.722603149400000007e+02 -4.941076600000000041e-01
1.827934448239999938e+03 3.722603149400000007e+02 -1.172169919999999976e+00
1.827581054689999974e+03 3.722603149400000007e+02 -2.007697339999999997e+00
1.827157348629999888e+03 3.722603149400000007e+02 -2.624027250000000144e+00
1.826476562500000000e+03 3.722603149400000007e+02 -3.274320840000000121e+00
1.825844482420000077e+03 3.722603149400000007e+02 -3.667688609999999905e+00
1.825001953129999947e+03 3.722603149400000007e+02 -3.981254100000000129e+00
1.824000000000000000e+03 3.722604064899999798e+02 -4.105329990000000429e+00
1.824989013670000077e+03 3.723546142600000053e+02 -3.929900879999999930e+00
1.825820800779999900e+03 3.723546142600000053e+02 -3.620380159999999847e+00
1.826444580079999923e+03 3.723546142600000053e+02 -3.232086180000000031e+00
1.827116577150000012e+03 3.723546142600000053e+02 -2.590180160000000065e+00
1.827534790039999962e+03 3.723546142600000053e+02 -1.981800199999999901e+00
1.827883666989999938e+03 3.723546142600000053e+02 -1.157050130000000010e+00
1.828022949220000100e+03 3.723546142600000053e+02 -4.877340199999999903e-01
1.828039550779999900e+03 3.723546142600000053e+02 3.231648200000000193e-01
1.827929931639999950e+03 3.723546142600000053e+02 9.890341799999999850e-01
1.827620361329999923e+03 3.723546142600000053e+02 1.820772290000000071e+00
1.827232177730000103e+03 3.723546142600000053e+02 2.444591050000000099e+00
1.826684448239999938e+03 3.723546142600000053e+02 3.035832169999999941e+00
1.826294311520000065e+03 3.723546142600000053e+02 3.340491529999999987e+00
1.825657104489999938e+03 3.723546142600000053e+02 3.698153019999999902e+00
1.824000000000000000e+03 3.721123657200000139e+02 -4.250404829999999912e+00
1.824000000000000000e+03 3.720541992199999868e+02 -4.350801940000000201e+00
1.822962646480000103e+03 3.721123962400000096e+02 -4.121798990000000273e+00
1.824000000000000000e+03 3.722024536100000205e+02 -4.150587080000000206e+00
1.822987060550000024e+03 3.722025146500000119e+02 -4.024997710000000062e+00
1.824000000000000000e+03 3.722604064899999798e+02 -4.105329990000000429e+00
1.826274902339999926e+03 3.724535522499999729e+02 3.312202220000000086e+00
1.826661743160000015e+03 3.724535522499999729e+02 3.010123010000000043e+00
1.827204711910000015e+03 3.724535522499999729e+02 2.423888920000000002e+00
1.826650268549999964e+03 3.725999755899999855e+02 2.995954279999999859e+00
1.826263793950000036e+03 3.725999755899999855e+02 3.297668219999999817e+00
1.827589721679999911e+03 3.724535522499999729e+02 1.805353049999999904e+00
1.827896606450000036e+03 3.724535522499999729e+02 9.806587100000000445e-01
1.828005371089999926e+03 3.724535522499999729e+02 3.204282500000000256e-01
1.827879028320000089e+03 3.725999755899999855e+02 9.761164199999999846e-01
1.827573242189999974e+03 3.725999755899999855e+02 1.797483329999999935e+00
1.827190185550000024e+03 3.725999755899999855e+02 2.412884000000000029e+00
1.827989013670000077e+03 3.724535522499999729e+02 -4.836033900000000219e-01
1.827987182620000112e+03 3.725999755899999855e+02 3.189649600000000196e-01
1.827850830079999923e+03 3.724535522499999729e+02 -1.147251369999999993e+00
1.827504882810000026e+03 3.724535522499999729e+02 -1.965016840000000098e+00
1.827090209960000038e+03 3.724535522499999729e+02 -2.568244930000000092e+00
1.827488891599999988e+03 3.725999755899999855e+02 -1.956402060000000054e+00
1.827833496089999926e+03 3.725999755899999855e+02 -1.141808750000000039e+00
1.826423828129999947e+03 3.724535522499999729e+02 -3.204714539999999889e+00
1.825805297849999988e+03 3.724535522499999729e+02 -3.589720010000000183e+00
1.824980590820000089e+03 3.724535522499999729e+02 -3.896620040000000174e+00
1.824000000000000000e+03 3.723549194299999954e+02 -4.052322860000000304e+00
1.824000000000000000e+03 3.720141601600000172e+02 -4.470257280000000222e+00
1.824000000000000000e+03 3.719999694800000043e+02 -4.599977489999999669e+00
1.822909057620000112e+03 3.720141906700000050e+02 -4.334956649999999634e+00
1.822877197269999897e+03 3.719999694800000043e+02 -4.461433409999999711e+00
1.820329711910000015e+03 3.719999694800000043e+02 -2.778849360000000157e+00
1.822938110349999988e+03 3.720540771500000119e+02 -4.219443319999999886e+00
1.822117797849999988e+03 3.719999694800000043e+02 -4.199760440000000372e+00
1.822171997070000089e+03 3.720141906700000050e+02 -4.079273220000000144e+00
1.822220703129999947e+03 3.720540771500000119e+02 -3.970573190000000086e+00
1.822261962889999950e+03 3.721123962400000096e+02 -3.878688570000000002e+00
1.822302734379999947e+03 3.722025146500000119e+02 -3.787596460000000054e+00
1.821394042970000100e+03 3.719999694800000043e+02 -3.792456150000000026e+00
1.821469360349999988e+03 3.720141906700000050e+02 -3.684748170000000211e+00
1.821536621089999926e+03 3.720540771500000119e+02 -3.586560729999999975e+00
1.821593627929999911e+03 3.721123962400000096e+02 -3.503562449999999995e+00
1.821650146480000103e+03 3.722025146500000119e+02 -3.421280379999999788e+00
1.820951538089999985e+03 3.719999694800000043e+02 -3.449082139999999796e+00
1.821038818360000050e+03 3.720141906700000050e+02 -3.348687650000000016e+00
1.821117797849999988e+03 3.720540771500000119e+02 -3.259455200000000108e+00
1.821184570310000026e+03 3.721123962400000096e+02 -3.184026479999999992e+00
1.821250610349999988e+03 3.722025146500000119e+02 -3.109248640000000119e+00
1.821280517579999923e+03 3.722603149400000007e+02 -3.075457570000000196e+00
1.821675781250000000e+03 3.722603149400000007e+02 -3.384098289999999842e+00
1.821315551760000062e+03 3.723546142600000053e+02 -3.035788059999999788e+00
1.822321166989999938e+03 3.722603149400000007e+02 -3.746433500000000194e+00
1.821705688479999935e+03 3.723546142600000053e+02 -3.340447430000000217e+00
1.821338256839999985e+03 3.724535522499999729e+02 -3.010078909999999830e+00
1.821725097660000074e+03 3.724535522499999729e+02 -3.312157870000000059e+00
1.821735229489999938e+03 3.725999755899999855e+02 -3.298851009999999917e+00
1.822342895510000062e+03 3.723546142600000053e+02 -3.698108669999999876e+00
1.822356811520000065e+03 3.724535522499999729e+02 -3.666790489999999902e+00
