ply
format ascii 1.0
comment PYTHON generated
element vertex 633
property float x
property float y
property float z
end_header
1.729669555660000015e+03 5.392876586899999438e+02 4.364540579999999892e+00
1.724790405270000065e+03 5.377387695300000132e+02 4.500030989999999953e+00
1.725345336910000015e+03 5.367774047899999914e+02 4.361385349999999939e+00
1.724363281250000000e+03 5.384783935499999643e+02 4.420733450000000175e+00
1.724085693360000050e+03 5.389594116199999689e+02 4.276691439999999567e+00
1.728565429689999974e+03 5.412000122099999544e+02 4.361385349999999939e+00
1.728316162110000050e+03 5.416318359399999736e+02 4.207106109999999788e+00
1.730915161129999888e+03 5.371303710900000397e+02 2.720110179999999822e+00
1.731119018549999964e+03 5.367770996100000502e+02 2.068645000000000067e+00
1.726570922849999988e+03 5.346547241199999689e+02 2.756011490000000119e+00
1.730704345699999976e+03 5.374955444299999954e+02 3.196531530000000121e+00
1.726374023439999974e+03 5.349958496100000502e+02 3.196946619999999850e+00
1.730395019529999900e+03 5.380312500000000000e+02 3.710187669999999827e+00
1.726064575200000036e+03 5.355316772500000297e+02 3.711049080000000000e+00
1.730041259769999897e+03 5.386439819299999954e+02 4.108412269999999644e+00
1.725634765629999947e+03 5.362762451199999987e+02 4.175209050000000310e+00
1.731268554689999974e+03 5.365181884800000489e+02 1.349015829999999916e+00
1.726829467770000065e+03 5.342070312500000000e+02 1.906605840000000107e+00
1.731333007810000026e+03 5.364066162100000383e+02 8.311155399999999860e-01
1.726965942379999888e+03 5.339706420899999557e+02 1.148587819999999926e+00
1.731355102539999962e+03 5.363682861300000013e+02 -5.425773900000000483e-01
1.727032714839999926e+03 5.338549804699999868e+02 3.867226799999999853e-01
1.731293945310000026e+03 5.364743042000000059e+02 -1.164163950000000058e+00
1.726995971679999911e+03 5.339186401399999795e+02 -9.009979399999999972e-01
1.731178344729999935e+03 5.366743774399999438e+02 -1.825182199999999977e+00
1.726947509769999897e+03 5.340024414099999603e+02 -1.285843850000000010e+00
1.730852416989999938e+03 5.372391967800000430e+02 -2.878212210000000049e+00
1.726757568360000050e+03 5.343314819299999954e+02 -2.184469459999999863e+00
1.730649291989999938e+03 5.375908203100000264e+02 -3.305387019999999954e+00
1.726472167970000100e+03 5.348258056600000145e+02 -2.994907379999999897e+00
1.730244018549999964e+03 5.382926635699999451e+02 -3.898743389999999920e+00
1.729924804689999974e+03 5.388455810499999643e+02 -4.207042689999999752e+00
1.725923583980000103e+03 5.357761230500000238e+02 -3.887691020000000108e+00
1.726334472660000074e+03 5.350642700199999808e+02 -3.275291680000000039e+00
1.729675537110000050e+03 5.392774047899999914e+02 -4.361321929999999902e+00
1.725495239260000062e+03 5.365180664099999603e+02 -4.276628020000000419e+00
1.729120483400000012e+03 5.402387085000000297e+02 -4.499967579999999856e+00
1.725217407229999935e+03 5.369990234399999736e+02 -4.420670030000000139e+00
1.729120483400000012e+03 5.402387085000000297e+02 -4.499967579999999856e+00
1.728571411129999888e+03 5.411897582999999941e+02 -4.364477629999999664e+00
1.724790405270000065e+03 5.377387695300000132e+02 -4.499967579999999856e+00
1.724790405270000065e+03 5.377387695300000132e+02 -4.499967579999999856e+00
1.723657226560000026e+03 5.397012939500000357e+02 3.887755160000000210e+00
1.727996948239999938e+03 5.421847534199999927e+02 3.898807759999999956e+00
1.727591796879999947e+03 5.428865966800000251e+02 3.305451389999999989e+00
1.723246337889999950e+03 5.404131469699999570e+02 3.275355820000000140e+00
1.723108642579999923e+03 5.406516723600000205e+02 2.994971280000000124e+00
1.727388793950000036e+03 5.432382202100000086e+02 2.878276590000000024e+00
1.722823242189999974e+03 5.411459350600000562e+02 2.184533829999999899e+00
1.727062744139999950e+03 5.438030395499999941e+02 1.825246570000000013e+00
1.722633300779999900e+03 5.414750366199999689e+02 1.285907979999999950e+00
1.726947143549999964e+03 5.440031127900000456e+02 1.164228199999999935e+00
1.722584838870000112e+03 5.415587768599999663e+02 9.010620700000000483e-01
1.726885864260000062e+03 5.441091308600000502e+02 5.426418800000000209e-01
1.722548095699999976e+03 5.416224365199999511e+02 -3.866585799999999740e-01
1.726908081049999964e+03 5.440708618200000046e+02 -8.310510500000000134e-01
1.722614868160000015e+03 5.415068359399999736e+02 -1.148523809999999923e+00
1.726972412110000050e+03 5.439592285200000106e+02 -1.348951580000000039e+00
1.722751342770000065e+03 5.412703857400000516e+02 -1.906541590000000008e+00
1.727121948239999938e+03 5.437003173800000013e+02 -2.068580390000000158e+00
1.723009765629999947e+03 5.408226928699999689e+02 -2.755947350000000018e+00
1.727325927730000103e+03 5.433470459000000119e+02 -2.720045569999999913e+00
1.727536743160000015e+03 5.429818725600000562e+02 -3.196466920000000211e+00
1.723206909179999911e+03 5.404815673800000013e+02 -3.196882490000000132e+00
1.727846069339999985e+03 5.424461669900000516e+02 -3.710123299999999791e+00
1.723516235349999988e+03 5.399457397500000297e+02 -3.710984949999999838e+00
1.728199829099999988e+03 5.418334350600000562e+02 -4.108348369999999861e+00
1.723945922849999988e+03 5.392011718799999471e+02 -4.175145149999999639e+00
1.724235473629999888e+03 5.387000732400000516e+02 -4.361321929999999902e+00
1.721620605470000100e+03 5.532290649399999438e+02 4.500031950000000336e+00
1.722169677730000103e+03 5.522780761699999630e+02 4.364541530000000336e+00
1.717290405270000065e+03 5.507291259800000489e+02 4.500031950000000336e+00
1.717845458980000103e+03 5.497678222700000106e+02 4.361386300000000382e+00
1.716863403320000089e+03 5.514687500000000000e+02 4.420734409999999670e+00
1.716585693360000050e+03 5.519498290999999881e+02 4.276692390000000010e+00
1.721065551760000062e+03 5.541903686499999822e+02 4.361386300000000382e+00
1.720816284179999911e+03 5.546221923800000013e+02 4.207106590000000423e+00
1.723415161129999888e+03 5.501207885699999451e+02 2.720110889999999948e+00
1.723619140629999947e+03 5.497675170899999557e+02 2.068645720000000132e+00
1.719070922849999988e+03 5.476450805700000046e+02 2.756012199999999801e+00
1.723204223629999888e+03 5.504859008800000311e+02 3.196532250000000186e+00
1.718874023439999974e+03 5.479862670899999557e+02 3.196947339999999915e+00
1.722895019529999900e+03 5.510216064500000357e+02 3.710188389999999892e+00
1.718564575200000036e+03 5.485220947300000489e+02 3.711049800000000065e+00
1.722541259769999897e+03 5.516343994100000145e+02 4.108413220000000088e+00
1.718134765629999947e+03 5.492666626000000178e+02 4.175209999999999866e+00
1.723768554689999974e+03 5.495085449199999630e+02 1.349016669999999918e+00
1.719329467770000065e+03 5.471973877000000357e+02 1.906606440000000013e+00
1.723833007810000026e+03 5.493969726599999603e+02 8.311162600000000511e-01
1.719465820310000026e+03 5.469609985399999914e+02 1.148588659999999928e+00
1.723855102539999962e+03 5.493586425800000370e+02 -5.425766100000000147e-01
1.719532714839999926e+03 5.468453369100000145e+02 3.867234600000000189e-01
1.723793945310000026e+03 5.494646606400000337e+02 -1.164163110000000056e+00
1.719495849610000050e+03 5.469090576199999987e+02 -9.009972200000000431e-01
1.723678344729999935e+03 5.496647338899999795e+02 -1.825181479999999912e+00
1.719447631839999985e+03 5.469927978499999881e+02 -1.285843129999999945e+00
1.723352294920000077e+03 5.502295532199999570e+02 -2.878211499999999923e+00
1.719257568360000050e+03 5.473218383800000311e+02 -2.184468750000000181e+00
1.723149291989999938e+03 5.505812377900000456e+02 -3.305386299999999888e+00
1.718972167970000100e+03 5.478161621100000502e+02 -2.994906659999999832e+00
1.722744140629999947e+03 5.512830810499999643e+02 -3.898742439999999920e+00
1.722424804689999974e+03 5.518359985399999914e+02 -4.207041740000000196e+00
1.718423461910000015e+03 5.487664794900000516e+02 -3.887690309999999982e+00
1.718834472660000074e+03 5.480546875000000000e+02 -3.275290969999999913e+00
1.722175537110000050e+03 5.522677612300000192e+02 -4.361321450000000155e+00
1.717995117189999974e+03 5.495084228499999881e+02 -4.276627060000000036e+00
1.721620605470000100e+03 5.532290649399999438e+02 -4.499966620000000361e+00
1.717717407229999935e+03 5.499894409199999927e+02 -4.420669079999999695e+00
1.721620605470000100e+03 5.532290649399999438e+02 -4.499966620000000361e+00
1.721071533199999976e+03 5.541801147500000297e+02 -4.364476680000000108e+00
1.717290405270000065e+03 5.507291259800000489e+02 -4.499966620000000361e+00
1.717290405270000065e+03 5.507291259800000489e+02 -4.499966620000000361e+00
1.716157348629999888e+03 5.526917114300000549e+02 3.887756110000000209e+00
1.720497070310000026e+03 5.551751709000000119e+02 3.898808480000000021e+00
1.720091796879999947e+03 5.558769531299999471e+02 3.305452349999999928e+00
1.715746337889999950e+03 5.534035034199999927e+02 3.275356770000000139e+00
1.715608642579999923e+03 5.536420288100000562e+02 2.994972230000000124e+00
1.719888671879999947e+03 5.562286377000000357e+02 2.878277540000000023e+00
1.715323242189999974e+03 5.541363525399999617e+02 2.184534549999999964e+00
1.719562622070000089e+03 5.567934570300000132e+02 1.825247410000000015e+00
1.715133178710000038e+03 5.544653930700000046e+02 1.285908700000000016e+00
1.719447143549999964e+03 5.569935302699999511e+02 1.164229039999999937e+00
1.715084960939999974e+03 5.545491332999999941e+02 9.010628499999999708e-01
1.719385986329999923e+03 5.570995483399999557e+02 5.426425900000000357e-01
1.715048095699999976e+03 5.546128539999999703e+02 -3.866577999999999959e-01
1.719408081049999964e+03 5.570612182600000324e+02 -8.310502800000000301e-01
1.715114990230000103e+03 5.544971923800000013e+02 -1.148522969999999921e+00
1.719472534179999911e+03 5.569495849600000383e+02 -1.348950740000000037e+00
1.715251342770000065e+03 5.542608032199999570e+02 -1.906540869999999943e+00
1.719622070310000026e+03 5.566906738300000370e+02 -2.068579670000000093e+00
1.715509887700000036e+03 5.538131103499999881e+02 -2.755946400000000018e+00
1.719825805660000015e+03 5.563374633800000311e+02 -2.720044609999999974e+00
1.720036743160000015e+03 5.559722900399999617e+02 -3.196465970000000212e+00
1.715706787110000050e+03 5.534719238300000370e+02 -3.196881530000000193e+00
1.720345947269999897e+03 5.554365844699999570e+02 -3.710122349999999791e+00
1.716016113279999900e+03 5.529360961899999438e+02 -3.710983989999999899e+00
1.720699829099999988e+03 5.548238525399999617e+02 -4.108347890000000113e+00
1.716446044920000077e+03 5.521915283199999749e+02 -4.175144669999999891e+00
1.716735351560000026e+03 5.516904296899999736e+02 -4.361321450000000155e+00
1.715044311520000065e+03 5.546195678699999689e+02 -2.626495099999999749e-01
1.713290405270000065e+03 5.576572876000000178e+02 1.000003146999999970e+01
1.713290405270000065e+03 5.576572876000000178e+02 -9.999966620000000361e+00
1.715111450200000036e+03 5.545030517599999484e+02 -1.122570870000000109e+00
1.715051025389999950e+03 5.546077880899999855e+02 4.369476099999999863e-01
1.715119018549999964e+03 5.544901733399999557e+02 1.178721789999999991e+00
1.715279418950000036e+03 5.542120971699999927e+02 2.018706799999999912e+00
1.715460327150000012e+03 5.538989868200000046e+02 2.617782350000000147e+00
1.715704589839999926e+03 5.534758300800000370e+02 3.192252159999999783e+00
1.716053588870000112e+03 5.528713378899999498e+02 3.759161230000000131e+00
1.716359863279999900e+03 5.523407592800000430e+02 4.097193240000000181e+00
1.716771362299999964e+03 5.516281127900000456e+02 4.378650190000000109e+00
1.717290405270000065e+03 5.507291259800000489e+02 4.500031950000000336e+00
1.717552246089999926e+03 5.502755737300000192e+02 4.469457629999999959e+00
1.717893676760000062e+03 5.496840820300000132e+02 4.335234169999999665e+00
1.718299804689999974e+03 5.489808960000000297e+02 4.021842959999999856e+00
1.718737060550000024e+03 5.482234497099999544e+02 3.446599720000000033e+00
1.722544189449999976e+03 5.416292114300000549e+02 -2.626502800000000137e-01
1.718926879879999888e+03 5.478946533199999749e+02 3.088384870000000060e+00
1.719145507810000026e+03 5.475158081099999663e+02 2.546246050000000150e+00
1.719356689449999976e+03 5.471502685499999643e+02 1.781214120000000012e+00
1.719469360349999988e+03 5.469551391600000443e+02 1.122636439999999958e+00
1.719532348629999888e+03 5.468457641600000443e+02 3.789641899999999786e-01
1.719525146480000103e+03 5.468584594699999570e+02 -5.236597100000000005e-01
1.719458007810000026e+03 5.469747314500000357e+02 -1.206625700000000023e+00
1.719326782229999935e+03 5.472019653300000073e+02 -1.913812279999999921e+00
1.719094726560000026e+03 5.476037597700000106e+02 -2.688210489999999897e+00
1.718865966800000024e+03 5.480002441399999498e+02 -3.212565179999999909e+00
1.718575439449999976e+03 5.485032959000000119e+02 -3.693775420000000143e+00
1.715224121089999926e+03 5.543079223600000205e+02 -1.781148430000000005e+00
1.715443481450000036e+03 5.539280395499999941e+02 -2.570140359999999902e+00
1.715684082029999900e+03 5.535112914999999703e+02 -3.151032450000000207e+00
1.715946289060000026e+03 5.530571899399999438e+02 -3.608756300000000028e+00
1.716333496089999926e+03 5.523865356400000337e+02 -4.072707180000000093e+00
1.716687133789999962e+03 5.517741088899999795e+02 -4.335168839999999690e+00
1.717028442379999888e+03 5.511826171899999736e+02 -4.469392299999999985e+00
1.717479858400000012e+03 5.504009399399999438e+02 -4.483985900000000413e+00
1.717851806639999950e+03 5.497568969699999570e+02 -4.357690810000000248e+00
1.718181030270000065e+03 5.491865234399999736e+02 -4.132449150000000238e+00
1.722611572269999897e+03 5.415126342800000430e+02 -1.122571589999999953e+00
1.722551025389999950e+03 5.416173706099999663e+02 4.369468400000000030e-01
1.722618896480000103e+03 5.414998168900000337e+02 1.178720949999999990e+00
1.722779541019999897e+03 5.412216796899999736e+02 2.018706079999999847e+00
1.722960205079999923e+03 5.409085693399999855e+02 2.617781400000000147e+00
1.723204467770000065e+03 5.404854736300000013e+02 3.192251209999999784e+00
1.723553588870000112e+03 5.398809814500000357e+02 3.759160520000000005e+00
1.723859863279999900e+03 5.393504028300000073e+02 4.097192760000000433e+00
1.724271240230000103e+03 5.386377563500000178e+02 4.378649229999999726e+00
1.724790405270000065e+03 5.377387695300000132e+02 4.500030989999999953e+00
1.725052246089999926e+03 5.372852172899999914e+02 4.469456669999999576e+00
1.725393798829999923e+03 5.366936645499999941e+02 4.335233210000000170e+00
1.726237060550000024e+03 5.352330322300000489e+02 3.446599009999999907e+00
1.726426879879999888e+03 5.349042968799999471e+02 3.088384149999999995e+00
1.730044189449999976e+03 5.286387939500000357e+02 -2.626510300000000075e-01
1.725799682620000112e+03 5.359904785200000106e+02 4.021842000000000361e+00
1.726645629879999888e+03 5.345254516600000443e+02 2.546245569999999958e+00
1.726856567379999888e+03 5.341599121100000502e+02 1.781213399999999947e+00
1.726969238279999900e+03 5.339647827100000086e+02 1.122635719999999893e+00
1.727032470699999976e+03 5.338554687500000000e+02 3.789633800000000163e-01
1.727025146480000103e+03 5.338681030300000430e+02 -5.236604200000000153e-01
1.726958007810000026e+03 5.339843139600000086e+02 -1.206626530000000086e+00
1.726826782229999935e+03 5.342116088899999795e+02 -1.913812990000000047e+00
1.726594848629999888e+03 5.346134033199999749e+02 -2.688211200000000023e+00
1.726365966800000024e+03 5.350098266600000443e+02 -3.212565899999999974e+00
1.726075561520000065e+03 5.355128784199999927e+02 -3.693776129999999824e+00
1.725680908199999976e+03 5.361961669900000516e+02 -4.132450099999999793e+00
1.722724243160000015e+03 5.413175048800000013e+02 -1.781149270000000007e+00
1.722943603519999897e+03 5.409376831099999663e+02 -2.570141319999999840e+00
1.723184082029999900e+03 5.405209350600000562e+02 -3.151033400000000206e+00
1.723446289060000026e+03 5.400667724600000383e+02 -3.608757259999999967e+00
1.723833496089999926e+03 5.393961792000000059e+02 -4.072707649999999902e+00
1.724187011720000100e+03 5.387837524399999438e+02 -4.335169790000000134e+00
1.724528564449999976e+03 5.381922607400000516e+02 -4.469393250000000428e+00
1.724979858400000012e+03 5.374105835000000297e+02 -4.483986849999999968e+00
1.725351684570000089e+03 5.367665405300000430e+02 -4.357691759999999803e+00
1.730111450200000036e+03 5.285222778300000073e+02 -1.122572300000000078e+00
1.730224121089999926e+03 5.283271484399999736e+02 -1.781149979999999911e+00
1.730051025389999950e+03 5.286270141600000443e+02 4.369460900000000092e-01
1.730119018549999964e+03 5.285093994100000145e+02 1.178720240000000086e+00
1.730279418950000036e+03 5.282313232400000516e+02 2.018705129999999848e+00
1.730460327150000012e+03 5.279182128899999498e+02 2.617780919999999956e+00
1.730704589839999926e+03 5.274951171899999736e+02 3.192250730000000036e+00
1.731053588870000112e+03 5.268905639600000086e+02 3.759159799999999940e+00
1.731359985349999988e+03 5.263599853499999881e+02 4.097191809999999990e+00
1.731771362299999964e+03 5.256473998999999822e+02 4.378648759999999918e+00
1.732290405270000065e+03 5.247483520499999941e+02 4.500030520000000145e+00
1.732552246089999926e+03 5.242947997999999643e+02 4.469456199999999768e+00
1.733736938479999935e+03 5.222426757800000132e+02 3.446598289999999842e+00
1.733926879879999888e+03 5.219138793900000337e+02 3.088383439999999869e+00
1.737544189449999976e+03 5.156484375000000000e+02 -2.626518299999999750e-01
1.733299682620000112e+03 5.230001220699999749e+02 4.021841049999999917e+00
1.734145629879999888e+03 5.215350341800000251e+02 2.546244859999999832e+00
1.734356689449999976e+03 5.211694946300000311e+02 1.781212690000000043e+00
1.734469238279999900e+03 5.209744872999999643e+02 1.122635009999999989e+00
1.734532348629999888e+03 5.208651122999999643e+02 3.789626400000000173e-01
1.734525024410000015e+03 5.208777465800000073e+02 -5.236612600000000173e-01
1.734458007810000026e+03 5.209939575199999808e+02 -1.206627249999999929e+00
1.734326660160000074e+03 5.212211914099999603e+02 -1.913813709999999890e+00
1.734094726560000026e+03 5.216229858399999557e+02 -2.688211920000000088e+00
1.733865966800000024e+03 5.220194702100000086e+02 -3.212566380000000166e+00
1.733575439449999976e+03 5.225225219699999570e+02 -3.693776849999999889e+00
1.733181030270000065e+03 5.232057495100000324e+02 -4.132451060000000176e+00
1.730443481450000036e+03 5.279472656299999471e+02 -2.570142029999999966e+00
1.730684204099999988e+03 5.275305786100000205e+02 -3.151034119999999827e+00
1.730946289060000026e+03 5.270764160200000106e+02 -3.608757970000000093e+00
1.731333496089999926e+03 5.264057617199999868e+02 -4.072708610000000284e+00
1.731687011720000100e+03 5.257933349600000383e+02 -4.335170269999999881e+00
1.732028564449999976e+03 5.252018432600000324e+02 -4.469393730000000176e+00
1.732479858400000012e+03 5.244201660200000106e+02 -4.483987329999999716e+00
1.732851684570000089e+03 5.237761230500000238e+02 -4.357692240000000439e+00
1.737611572269999897e+03 5.155318603499999881e+02 -1.122573140000000080e+00
1.737724243160000015e+03 5.153367919900000516e+02 -1.781150819999999912e+00
1.737551025389999950e+03 5.156366577100000086e+02 4.369452899999999862e-01
1.737618896480000103e+03 5.155190429699999868e+02 1.178719400000000084e+00
1.737779541019999897e+03 5.152409668000000238e+02 2.018704650000000100e+00
1.732893676760000062e+03 5.237033081099999663e+02 4.335232730000000423e+00
1.737960205079999923e+03 5.149277954100000443e+02 2.617780209999999830e+00
1.738204589839999926e+03 5.145047607400000516e+02 3.192250009999999971e+00
1.738553466800000024e+03 5.139002075199999808e+02 3.759159089999999814e+00
1.738859863279999900e+03 5.133696289099999603e+02 4.097190860000000434e+00
1.739271240230000103e+03 5.126569824199999630e+02 4.378647800000000423e+00
1.739790405270000065e+03 5.117579650900000274e+02 4.500029559999999762e+00
1.740052246089999926e+03 5.113044433599999934e+02 4.469455240000000273e+00
1.740393798829999923e+03 5.107129821799999831e+02 4.335231779999999979e+00
1.743790405270000065e+03 5.048297729500000059e+02 1.000002860999999932e+01
1.740799804689999974e+03 5.100097656300000040e+02 4.021840570000000170e+00
1.741237060550000024e+03 5.092523193399999855e+02 3.446597339999999843e+00
1.741426879879999888e+03 5.089235229500000059e+02 3.088382479999999930e+00
1.741645629879999888e+03 5.085446777299999894e+02 2.546243909999999833e+00
1.741856689449999976e+03 5.081791381799999954e+02 1.781211850000000041e+00
1.741969238279999900e+03 5.079840393100000142e+02 1.122634169999999987e+00
1.742032348629999888e+03 5.078746643100000142e+02 3.789618599999999837e-01
1.743790405270000065e+03 5.048297729500000059e+02 -9.999969480000000743e+00
1.742025146480000103e+03 5.078872985799999924e+02 -5.236620300000000006e-01
1.741958007810000026e+03 5.080036010700000020e+02 -1.206628079999999992e+00
1.741826782229999935e+03 5.082308654799999772e+02 -1.913814539999999953e+00
1.741594848629999888e+03 5.086326599099999726e+02 -2.688212870000000088e+00
1.741365966800000024e+03 5.090290222200000017e+02 -3.212567330000000165e+00
1.741075561520000065e+03 5.095321044899999947e+02 -3.693777799999999889e+00
1.740680908199999976e+03 5.102153930700000046e+02 -4.132451529999999984e+00
1.740351684570000089e+03 5.107857665999999881e+02 -4.357693199999999933e+00
1.739979858400000012e+03 5.114297790499999792e+02 -4.483987810000000351e+00
1.737943481450000036e+03 5.149569091800000251e+02 -2.570142750000000031e+00
1.738184082029999900e+03 5.145401611300000013e+02 -3.151034590000000080e+00
1.738446289060000026e+03 5.140860595699999749e+02 -3.608758449999999840e+00
1.738833374020000065e+03 5.134154052699999511e+02 -4.072709559999999840e+00
1.739187133789999962e+03 5.128029785200000106e+02 -4.335171220000000325e+00
1.739528564449999976e+03 5.122114868200000046e+02 -4.469394679999999731e+00
1.743790405270000065e+03 5.048297729500000059e+02 -9.999969480000000743e+00
1.713290405270000065e+03 5.576572876000000178e+02 -9.999966620000000361e+00
1.717620483400000012e+03 5.601572876000000178e+02 -9.999966620000000361e+00
1.748120605470000100e+03 5.073297729500000059e+02 -9.999969480000000743e+00
1.743790405270000065e+03 5.048297729500000059e+02 -9.999969480000000743e+00
1.748120605470000100e+03 5.073297729500000059e+02 -9.999969480000000743e+00
1.743790405270000065e+03 5.048297729500000059e+02 1.000002860999999932e+01
1.748120605470000100e+03 5.073297729500000059e+02 1.000002860999999932e+01
1.743790405270000065e+03 5.048297729500000059e+02 1.000002860999999932e+01
1.748120605470000100e+03 5.073297729500000059e+02 1.000002860999999932e+01
1.713290405270000065e+03 5.576572876000000178e+02 1.000003146999999970e+01
1.713290405270000065e+03 5.576572876000000178e+02 -9.999966620000000361e+00
1.713290405270000065e+03 5.576572876000000178e+02 1.000003146999999970e+01
1.717620483400000012e+03 5.601572876000000178e+02 1.000003146999999970e+01
1.717620483400000012e+03 5.601572876000000178e+02 -9.999966620000000361e+00
1.717620483400000012e+03 5.601572876000000178e+02 1.000003146999999970e+01
1.717620483400000012e+03 5.601572876000000178e+02 -9.999966620000000361e+00
1.717620483400000012e+03 5.601572876000000178e+02 1.000003146999999970e+01
1.719453002929999911e+03 5.569834594699999570e+02 -1.206625099999999895e+00
1.719584106450000036e+03 5.567562255899999855e+02 -1.913811680000000015e+00
1.719816040039999962e+03 5.563544311499999822e+02 -2.688209769999999832e+00
1.720044921879999947e+03 5.559579467800000430e+02 -3.212564469999999783e+00
1.720335449220000100e+03 5.554548950199999808e+02 -3.693774700000000077e+00
1.720729980470000100e+03 5.547716674800000192e+02 -4.132449150000000238e+00
1.721059204099999988e+03 5.542012939500000357e+02 -4.357690810000000248e+00
1.721431030270000065e+03 5.535572509800000489e+02 -4.483985900000000413e+00
1.748120605470000100e+03 5.073297729500000059e+02 -9.999969480000000743e+00
1.721882324220000100e+03 5.527755737300000192e+02 -4.469392299999999985e+00
1.722223876949999976e+03 5.521840820300000132e+02 -4.335168839999999690e+00
1.728559204099999988e+03 5.412108764600000086e+02 -4.357691759999999803e+00
1.728931030270000065e+03 5.405668335000000297e+02 -4.483986849999999968e+00
1.728229858400000012e+03 5.417812500000000000e+02 -4.132449629999999985e+00
1.729382446289999962e+03 5.397852172899999914e+02 -4.469393250000000428e+00
1.729723754879999888e+03 5.391936645499999941e+02 -4.335169790000000134e+00
1.736059204099999988e+03 5.282205200199999808e+02 -4.357692240000000439e+00
1.736431152339999926e+03 5.275764770499999941e+02 -4.483987329999999716e+00
1.735729980470000100e+03 5.287908935499999643e+02 -4.132450580000000429e+00
1.736882324220000100e+03 5.267947997999999643e+02 -4.469393730000000176e+00
1.737223876949999976e+03 5.262033081099999663e+02 -4.335170269999999881e+00
1.743559204099999988e+03 5.152301635699999451e+02 -4.357693199999999933e+00
1.743931030270000065e+03 5.145861206099999663e+02 -4.483987810000000351e+00
1.743229980470000100e+03 5.158004760699999451e+02 -4.132451529999999984e+00
1.744382324220000100e+03 5.138044433600000502e+02 -4.469394679999999731e+00
1.744723754879999888e+03 5.132129516600000443e+02 -4.335171220000000325e+00
1.745077514650000012e+03 5.126005248999999822e+02 -4.072709559999999840e+00
1.745464721679999911e+03 5.119298706100000231e+02 -3.608758690000000158e+00
1.745726806639999950e+03 5.114757385300000010e+02 -3.151034829999999953e+00
1.745967407229999935e+03 5.110590515100000175e+02 -2.570142979999999966e+00
1.746186767579999923e+03 5.106791381799999954e+02 -1.781151179999999945e+00
1.746299438479999935e+03 5.104840393100000142e+02 -1.122573489999999952e+00
1.746366699220000100e+03 5.103675231899999858e+02 -2.626521600000000234e-01
1.748120605470000100e+03 5.073297729500000059e+02 1.000002860999999932e+01
1.746359985349999988e+03 5.103792419399999858e+02 4.369449599999999934e-01
1.746291992189999974e+03 5.104969177199999990e+02 1.178719040000000051e+00
1.746131469729999935e+03 5.107749633799999742e+02 2.018704409999999783e+00
1.745950683589999926e+03 5.110880737300000192e+02 2.617779969999999956e+00
1.745706420900000012e+03 5.115111999499999911e+02 3.192249770000000098e+00
1.745357421879999947e+03 5.121157226599999603e+02 3.759158849999999941e+00
1.745051025389999950e+03 5.126463012699999808e+02 4.097190860000000434e+00
1.744639648439999974e+03 5.133588867199999868e+02 4.378647800000000423e+00
1.744120483400000012e+03 5.142579956099999663e+02 4.500029559999999762e+00
1.743858642579999923e+03 5.147114868200000046e+02 4.469455240000000273e+00
1.736620605470000100e+03 5.272483520499999941e+02 4.500030520000000145e+00
1.743517211910000015e+03 5.153029785200000106e+02 4.335231779999999979e+00
1.737139526370000112e+03 5.263493042000000059e+02 4.378648759999999918e+00
1.737577392579999923e+03 5.255908813500000178e+02 -4.072709080000000093e+00
1.742835449220000100e+03 5.164837646500000119e+02 -3.693777079999999824e+00
1.737964599610000050e+03 5.249202270499999941e+02 -3.608757970000000093e+00
1.742545043950000036e+03 5.169868164099999603e+02 -3.212566610000000100e+00
1.738226806639999950e+03 5.244661865199999511e+02 -3.151034119999999827e+00
1.742316162110000050e+03 5.173833007800000132e+02 -2.688212159999999962e+00
1.738467407229999935e+03 5.240493774399999438e+02 -2.570142029999999966e+00
1.742084106450000036e+03 5.177850952100000086e+02 -1.913813949999999986e+00
1.738686767579999923e+03 5.236694946300000311e+02 -1.781150339999999943e+00
1.741952880860000050e+03 5.180123290999999881e+02 -1.206627490000000025e+00
1.738799316410000074e+03 5.234744262699999808e+02 -1.122572660000000111e+00
1.741885742189999974e+03 5.181286010699999451e+02 -5.236613799999999541e-01
1.738866699220000100e+03 5.233578491199999689e+02 -2.626513500000000056e-01
1.741878540039999962e+03 5.181412353499999881e+02 3.789624600000000010e-01
1.738859863279999900e+03 5.233696289099999603e+02 4.369457700000000111e-01
1.741941650389999950e+03 5.180318603499999881e+02 1.122634769999999893e+00
1.738791992189999974e+03 5.234872436499999822e+02 1.178719880000000053e+00
1.742054321289999962e+03 5.178367919900000516e+02 1.781212449999999947e+00
1.738631469729999935e+03 5.237653198199999451e+02 2.018704889999999974e+00
1.742265380860000050e+03 5.174712524399999438e+02 2.546244619999999959e+00
1.738450683589999926e+03 5.240784912100000383e+02 2.617780919999999956e+00
1.742484130860000050e+03 5.170924072300000489e+02 3.088383199999999995e+00
1.738206420900000012e+03 5.245015869100000145e+02 3.192250730000000036e+00
1.742673828129999947e+03 5.167636108399999557e+02 3.446598049999999969e+00
1.737857299799999964e+03 5.251060790999999881e+02 3.759159799999999940e+00
1.743111083980000103e+03 5.160061645499999941e+02 4.021840570000000170e+00
1.737551025389999950e+03 5.256366577100000086e+02 4.097191330000000242e+00
1.736358642579999923e+03 5.277018432600000324e+02 4.469456199999999768e+00
1.729120483400000012e+03 5.402387085000000297e+02 4.500030989999999953e+00
1.736017211910000015e+03 5.282933349600000383e+02 4.335232730000000423e+00
1.729639648439999974e+03 5.393396606400000337e+02 4.378649229999999726e+00
1.730077514650000012e+03 5.385812377900000456e+02 -4.072708129999999649e+00
1.735335449220000100e+03 5.294741821300000311e+02 -3.693776370000000142e+00
1.730464721679999911e+03 5.379106445300000132e+02 -3.608757259999999967e+00
1.735044921879999947e+03 5.299772338899999795e+02 -3.212566139999999848e+00
1.730726806639999950e+03 5.374565429699999868e+02 -3.151033400000000206e+00
1.734816040039999962e+03 5.303736572300000489e+02 -2.688211439999999897e+00
1.730967407229999935e+03 5.370397338899999795e+02 -2.570141319999999840e+00
1.734584228519999897e+03 5.307754516600000443e+02 -1.913813229999999921e+00
1.731186767579999923e+03 5.366599121100000502e+02 -1.781149510000000102e+00
1.734453002929999911e+03 5.310027465800000073e+02 -1.206626650000000023e+00
1.731299438479999935e+03 5.364647827100000086e+02 -1.122571949999999985e+00
1.734385864260000062e+03 5.311190185499999643e+02 -5.236606000000000316e-01
1.731366577150000012e+03 5.363482055700000046e+02 -2.626506100000000066e-01
1.734378540039999962e+03 5.311316528300000073e+02 3.789632299999999843e-01
1.731359985349999988e+03 5.363600463899999795e+02 4.369465100000000102e-01
1.734441650389999950e+03 5.310222778300000073e+02 1.122635599999999956e+00
1.731291992189999974e+03 5.364776611300000013e+02 1.178720589999999957e+00
1.734554321289999962e+03 5.308271484399999736e+02 1.781213160000000073e+00
1.731131469729999935e+03 5.367557372999999643e+02 2.018705839999999974e+00
1.734765258789999962e+03 5.304616088899999795e+02 2.546245340000000024e+00
1.730950561520000065e+03 5.370688476599999603e+02 2.617781400000000147e+00
1.734984008789999962e+03 5.300827636699999630e+02 3.088383910000000121e+00
1.730706298829999923e+03 5.374919433600000502e+02 3.192251209999999784e+00
1.735173828129999947e+03 5.297539672899999914e+02 3.446598770000000034e+00
1.730357421879999947e+03 5.380964965800000073e+02 3.759160520000000005e+00
1.735611206049999964e+03 5.289965820300000132e+02 4.021841529999999665e+00
1.730051025389999950e+03 5.386270141600000443e+02 4.097192289999999737e+00
1.728858764650000012e+03 5.406922607400000516e+02 4.469456669999999576e+00
1.721620605470000100e+03 5.532290649399999438e+02 4.500031950000000336e+00
1.728517211910000015e+03 5.412837524399999438e+02 4.335233210000000170e+00
1.722139648439999974e+03 5.523300781299999471e+02 4.378650190000000109e+00
1.722577392579999923e+03 5.515716552699999511e+02 -4.072707180000000093e+00
1.727835449220000100e+03 5.424645385699999451e+02 -3.693775650000000077e+00
1.722964599610000050e+03 5.509010009800000489e+02 -3.608756539999999902e+00
1.727545043950000036e+03 5.429675903300000073e+02 -3.212565419999999783e+00
1.723226806639999950e+03 5.504468994100000145e+02 -3.151032690000000080e+00
1.727316162110000050e+03 5.433640747099999544e+02 -2.688210730000000215e+00
1.723467529300000024e+03 5.500301513699999987e+02 -2.570140600000000219e+00
1.727084106450000036e+03 5.437658081099999663e+02 -1.913812520000000017e+00
1.723686767579999923e+03 5.496502685499999643e+02 -1.781148790000000037e+00
1.726952880860000050e+03 5.439931030300000430e+02 -1.206625939999999897e+00
1.723799316410000074e+03 5.494552002000000357e+02 -1.122571229999999920e+00
1.726885742189999974e+03 5.441093750000000000e+02 -5.236598300000000483e-01
1.723866699220000100e+03 5.493386230500000238e+02 -2.626497999999999888e-01
1.726878540039999962e+03 5.441220092800000430e+02 3.789640100000000178e-01
1.723859863279999900e+03 5.493504028300000073e+02 4.369473199999999724e-01
1.726941650389999950e+03 5.440126342800000430e+02 1.122636200000000084e+00
1.723791992189999974e+03 5.494680175800000370e+02 1.178721429999999959e+00
1.727054199220000100e+03 5.438175048800000013e+02 1.781213879999999916e+00
1.723631347660000074e+03 5.497460937500000000e+02 2.018706560000000039e+00
1.727265380860000050e+03 5.434519653300000073e+02 2.546245809999999832e+00
1.723450683589999926e+03 5.500592651399999795e+02 2.617782120000000212e+00
1.727484130860000050e+03 5.430731811499999822e+02 3.088384630000000186e+00
1.723206420900000012e+03 5.504823608399999557e+02 3.192251919999999910e+00
1.727673828129999947e+03 5.427443847700000106e+02 3.446599480000000160e+00
1.722857299799999964e+03 5.510868530300000430e+02 3.759161000000000197e+00
1.728111206049999964e+03 5.419869384800000489e+02 4.021842480000000108e+00
1.722551025389999950e+03 5.516174316399999498e+02 4.097193240000000181e+00
1.721358642579999923e+03 5.536826171899999736e+02 4.469457629999999959e+00
1.721017211910000015e+03 5.542741088899999795e+02 4.335234169999999665e+00
1.720611206049999964e+03 5.549772949199999630e+02 4.021842959999999856e+00
1.720173828129999947e+03 5.557347412100000383e+02 3.446600440000000098e+00
1.719984008789999962e+03 5.560635376000000178e+02 3.088385580000000186e+00
1.719765258789999962e+03 5.564423828100000264e+02 2.546246770000000215e+00
1.719554321289999962e+03 5.568079223600000205e+02 1.781214709999999979e+00
1.719441650389999950e+03 5.570030517599999484e+02 1.122637029999999925e+00
1.719378417970000100e+03 5.571123657199999570e+02 3.789647800000000011e-01
1.719385864260000062e+03 5.570997314500000357e+02 -5.236590500000000148e-01
1.805548828129999947e+03 4.238611755399999765e+02 -6.999974250000000175e+00
1.806254272460000038e+03 4.242685241699999779e+02 -6.952413560000000103e+00
1.804150268549999964e+03 4.230537414600000261e+02 -6.811157699999999870e+00
1.807174316410000074e+03 4.247997131299999864e+02 -6.743621349999999737e+00
1.808268188479999935e+03 4.254312744100000145e+02 -6.256124500000000310e+00
1.803041748050000024e+03 4.224137573200000020e+02 -6.373335840000000196e+00
1.805902587889999950e+03 4.240654907200000139e+02 6.988090520000000083e+00
1.804960083010000062e+03 4.235213623000000212e+02 6.966955659999999995e+00
1.807098876949999976e+03 4.247561645499999941e+02 6.767310140000000196e+00
1.803960815429999911e+03 4.229444274900000096e+02 6.755631450000000093e+00
1.808055786129999888e+03 4.253086242699999957e+02 6.373386380000000351e+00
1.802829223629999888e+03 4.222911071799999831e+02 6.256175039999999576e+00
1.808881103519999897e+03 4.257851562500000000e+02 5.847558499999999881e+00
1.802022216800000024e+03 4.218251647899999739e+02 5.693740840000000247e+00
1.809821533199999976e+03 4.263280639600000086e+02 4.965700149999999979e+00
1.801248291019999897e+03 4.213783569299999954e+02 4.933793539999999922e+00
1.810479614260000062e+03 4.267080383300000221e+02 4.072080139999999737e+00
1.809075195310000026e+03 4.258972168000000238e+02 -5.693689820000000346e+00
1.802216308589999926e+03 4.219372253399999977e+02 -5.847507479999999980e+00
1.809849121089999926e+03 4.263440246600000023e+02 -4.933742999999999768e+00
1.801303710939999974e+03 4.214103393600000231e+02 -4.997348790000000207e+00
1.811610961910000015e+03 4.273611755399999765e+02 2.546999999999999839e-05
1.811569702150000012e+03 4.273374023399999828e+02 8.146579900000000540e-01
1.809432006839999985e+03 4.261032104500000059e+02 3.789569700000000041e-01
1.809419433589999926e+03 4.260959167500000149e+02 -5.236668599999999563e-01
1.811447387700000036e+03 4.272667846699999927e+02 -1.614836809999999900e+00
1.809303222660000074e+03 4.260287780799999950e+02 -1.206632970000000027e+00
1.809075805660000015e+03 4.258975830100000053e+02 -1.913819429999999988e+00
1.808673950200000036e+03 4.256655883799999742e+02 -2.688217639999999964e+00
1.811068237299999964e+03 4.270478820800000221e+02 -2.894849779999999928e+00
1.808277587889999950e+03 4.254367370599999845e+02 -3.212572339999999915e+00
1.807774536129999888e+03 4.251462707499999851e+02 -3.693783040000000017e+00
1.810612792970000100e+03 4.267849731399999769e+02 -3.847880130000000065e+00
1.807091186520000065e+03 4.247518005399999765e+02 -4.132456300000000304e+00
1.806520996089999926e+03 4.244225158699999838e+02 -4.357697960000000315e+00
1.805876831049999964e+03 4.240506591800000251e+02 -4.483992579999999784e+00
1.805095214839999926e+03 4.235993347200000017e+02 -4.469399450000000051e+00
1.804503662110000050e+03 4.232578430199999957e+02 -4.335175989999999757e+00
1.803891357420000077e+03 4.229042663600000083e+02 -4.072714809999999908e+00
1.800687133789999962e+03 4.210543518100000142e+02 -4.181686400000000248e+00
1.803220581049999964e+03 4.225170593299999950e+02 -3.608764170000000160e+00
1.802766601560000026e+03 4.222548828100000264e+02 -3.151040319999999895e+00
1.802349853519999897e+03 4.220142822299999921e+02 -2.570148230000000034e+00
1.800078979489999938e+03 4.207032165499999792e+02 -3.018006800000000212e+00
1.801969848629999888e+03 4.217949523899999917e+02 -1.781156420000000074e+00
1.799741088870000112e+03 4.205081481899999858e+02 -2.007054570000000204e+00
1.801774902339999926e+03 4.216823425300000281e+02 -1.122578740000000019e+00
1.799578857420000077e+03 4.204145202600000175e+02 -1.217021939999999969e+00
1.801658325200000036e+03 4.216150207499999851e+02 -2.626574300000000250e-01
1.801670043950000036e+03 4.216218261700000198e+02 4.369396899999999917e-01
1.799496948239999938e+03 4.203671569800000043e+02 4.086423800000000273e-01
1.801787597660000074e+03 4.216897582999999941e+02 1.178713920000000082e+00
1.802065673829999923e+03 4.218502807599999755e+02 2.018698929999999780e+00
1.799688110349999988e+03 4.204775390600000264e+02 1.789956689999999906e+00
1.802378906250000000e+03 4.220310668899999769e+02 2.617774489999999954e+00
1.809322631839999985e+03 4.260400390600000264e+02 1.122629279999999952e+00
1.809127563479999935e+03 4.259274292000000059e+02 1.781206969999999945e+00
1.811388793950000036e+03 4.272330017099999964e+02 1.877049799999999991e+00
1.808761962889999950e+03 4.257163696299999742e+02 2.546238900000000083e+00
1.808383178710000038e+03 4.254976501500000268e+02 3.088377710000000054e+00
1.810966674799999964e+03 4.269892578100000264e+02 3.140184880000000067e+00
1.808054443360000050e+03 4.253078308099999845e+02 3.446592330000000093e+00
1.807296997070000089e+03 4.248705139200000076e+02 4.021835799999999850e+00
1.806593750000000000e+03 4.244645385700000020e+02 4.335227009999999659e+00
1.806002319339999985e+03 4.241230468800000040e+02 4.469450469999999953e+00
1.805548828129999947e+03 4.238611755399999765e+02 4.500024800000000269e+00
1.800484619139999950e+03 4.209374084500000208e+02 3.847930429999999902e+00
1.804649658199999976e+03 4.233421325699999898e+02 4.378643040000000042e+00
1.803937133789999962e+03 4.229306945800000221e+02 4.097185610000000366e+00
1.803406494139999950e+03 4.226243591300000162e+02 3.759153369999999938e+00
1.800029296879999947e+03 4.206744995099999755e+02 2.894900080000000209e+00
1.802802001949999976e+03 4.222753295900000126e+02 3.192244290000000095e+00
1.807061401370000112e+03 4.247345581100000231e+02 -6.778790469999999679e+00
1.805548828129999947e+03 4.238611755399999765e+02 -6.999974250000000175e+00
1.813513671879999947e+03 4.100654602100000261e+02 -6.999975199999999731e+00
1.813513671879999947e+03 4.100654602100000261e+02 -6.999975199999999731e+00
1.812166137700000036e+03 4.095361022899999739e+02 -6.852080349999999598e+00
1.814655883789999962e+03 4.105309753399999977e+02 -6.892352579999999840e+00
1.815941406250000000e+03 4.110737304699999868e+02 -6.496232509999999571e+00
1.807796875000000000e+03 4.251590881299999864e+02 -6.501271720000000087e+00
1.809052001949999976e+03 4.258837890600000264e+02 -5.713859079999999757e+00
1.799500976560000026e+03 4.203695068399999855e+02 -4.837269799999999731e-01
1.799583251949999976e+03 4.204169921899999736e+02 1.244796870000000055e+00
1.806835571289999962e+03 4.076463012699999808e+02 -3.020349099999999898e-01
1.799683959960000038e+03 4.204751586900000007e+02 -1.772289989999999982e+00
1.806990722660000074e+03 4.076968383799999742e+02 -1.516486049999999919e+00
1.799811767579999923e+03 4.205488891599999874e+02 -2.261839390000000005e+00
1.807472167970000100e+03 4.078552551299999891e+02 -2.970888140000000011e+00
1.800478027339999926e+03 4.209335937500000000e+02 -3.837304829999999889e+00
1.808051879879999888e+03 4.080493164100000172e+02 -4.009158610000000067e+00
1.801121215820000089e+03 4.213049926799999980e+02 -4.782331939999999726e+00
1.808992309570000089e+03 4.083722534199999927e+02 -5.130420209999999592e+00
1.801662109379999947e+03 4.216172790499999792e+02 -5.372070790000000429e+00
1.809865112299999964e+03 4.086806640600000264e+02 -5.848060610000000104e+00
1.803070434570000089e+03 4.224303283699999838e+02 -6.388427260000000274e+00
1.811159545900000012e+03 4.091550598100000116e+02 -6.540635589999999944e+00
1.804069335939999974e+03 4.230070190399999888e+02 -6.788740159999999690e+00
1.799747802730000103e+03 4.205120544399999858e+02 2.034780500000000103e+00
1.806908203129999947e+03 4.076699218800000040e+02 1.067311880000000102e+00
1.800137451170000077e+03 4.207369689899999798e+02 3.155609370000000080e+00
1.807111572269999897e+03 4.077363586399999917e+02 1.998182179999999919e+00
1.800980712889999950e+03 4.212238464399999884e+02 4.602073670000000227e+00
1.807696411129999888e+03 4.079299316400000066e+02 3.423765899999999807e+00
1.801287353519999897e+03 4.214009094200000050e+02 4.978966709999999907e+00
1.808513671879999947e+03 4.082066650400000185e+02 4.619214060000000011e+00
1.802045410160000074e+03 4.218385620099999755e+02 5.713910099999999659e+00
1.803300659179999911e+03 4.225632934600000112e+02 6.501322749999999928e+00
1.809399291989999938e+03 4.085148620599999845e+02 5.493421080000000067e+00
1.804036010739999938e+03 4.229878234899999825e+02 6.778841500000000408e+00
1.810541503910000074e+03 4.089263305700000046e+02 6.251313689999999923e+00
1.805548828129999947e+03 4.238611755399999765e+02 7.000025270000000077e+00
1.811904541019999897e+03 4.094358825699999898e+02 6.787715440000000378e+00
1.816959838870000112e+03 4.115178527799999983e+02 -5.935511589999999948e+00
1.809810058589999926e+03 4.263214721699999927e+02 -4.978916169999999752e+00
1.818090820310000026e+03 4.120262146000000030e+02 -4.955175399999999897e+00
1.810116821289999962e+03 4.264985351600000172e+02 -4.602023120000000134e+00
1.818836791989999938e+03 4.123703002899999888e+02 -3.974135879999999954e+00
1.810960083010000062e+03 4.269854126000000178e+02 -3.155559059999999860e+00
1.819387207029999900e+03 4.126286926299999891e+02 -2.905505900000000086e+00
1.811349609379999947e+03 4.272103271500000119e+02 -2.034730199999999822e+00
1.819802001949999976e+03 4.128260192899999765e+02 -1.551312089999999921e+00
1.811514282229999935e+03 4.273053894000000241e+02 -1.244746329999999901e+00
1.811596557620000112e+03 4.273528747600000202e+02 4.837774899999999767e-01
1.819959228519999897e+03 4.129013977100000261e+02 2.460999999999999985e-05
1.819938842770000065e+03 4.128916320800000221e+02 5.581365200000000248e-01
1.819767700200000036e+03 4.128096313500000178e+02 1.708622099999999921e+00
1.811413574220000100e+03 4.272472228999999970e+02 1.772340540000000075e+00
1.819520385739999938e+03 4.126918334999999729e+02 2.555047039999999825e+00
1.811285766599999988e+03 4.271734619100000145e+02 2.261889699999999781e+00
1.818934326170000077e+03 4.124158019999999851e+02 3.814086679999999951e+00
1.810619506839999985e+03 4.267887573200000020e+02 3.837355140000000109e+00
1.817809692379999888e+03 4.118984069800000043e+02 5.243023870000000031e+00
1.809976196289999962e+03 4.264173889200000076e+02 4.782382969999999567e+00
1.809435424799999964e+03 4.261051025400000185e+02 5.372121329999999695e+00
1.817191040039999962e+03 4.116205139200000076e+02 5.769515039999999928e+00
1.815868408199999976e+03 4.110422668499999759e+02 6.527425290000000047e+00
1.808026977539999962e+03 4.252920532200000139e+02 6.388477800000000428e+00
1.814658569339999985e+03 4.105321655299999861e+02 6.893321989999999566e+00
1.807028198239999938e+03 4.247153625500000089e+02 6.788790699999999845e+00
1.813513671879999947e+03 4.100654602100000261e+02 7.000024319999999634e+00
1.805548828129999947e+03 4.238611755399999765e+02 7.000025270000000077e+00
1.813513671879999947e+03 4.100654602100000261e+02 7.000024319999999634e+00
1.805548828129999947e+03 4.238611755399999765e+02 -4.499973770000000428e+00
1.806288330079999923e+03 4.242882385300000010e+02 -4.420676229999999762e+00
1.801548706049999964e+03 4.307893676799999980e+02 -4.499973770000000428e+00
1.802510009769999897e+03 4.313444213899999795e+02 -4.361327649999999778e+00
1.800597656250000000e+03 4.302403259299999831e+02 -4.364483360000000367e+00
1.798440307620000112e+03 4.289947814899999798e+02 -2.720052719999999979e+00
1.798087158199999976e+03 4.287908325199999808e+02 -2.068587539999999780e+00
1.802464721679999911e+03 4.220806274400000007e+02 -2.755954500000000085e+00
1.798805541989999938e+03 4.292056274400000007e+02 -3.196473839999999900e+00
1.802805908199999976e+03 4.222775878900000066e+02 -3.196889640000000199e+00
1.799341186520000065e+03 4.295148925799999802e+02 -3.710129980000000050e+00
1.803341796879999947e+03 4.225869751000000178e+02 -3.710991860000000031e+00
1.804086181639999950e+03 4.230168151899999884e+02 -4.175152299999999705e+00
1.799953979489999938e+03 4.298686828599999785e+02 -4.108355050000000119e+00
1.804587402339999926e+03 4.233061523399999828e+02 -4.361328600000000222e+00
1.808223144529999900e+03 4.254052734399999736e+02 -3.275298359999999853e+00
1.808461669920000077e+03 4.255429687500000000e+02 -2.994913819999999838e+00
1.804196655270000065e+03 4.323181457499999851e+02 -3.305393459999999894e+00
1.807511352539999962e+03 4.249942932100000235e+02 -3.887697939999999797e+00
1.808955932620000112e+03 4.258283386200000109e+02 -2.184475899999999804e+00
1.804548217770000065e+03 4.325211792000000059e+02 -2.878218649999999990e+00
1.809285034179999911e+03 4.260183715800000073e+02 -1.285850289999999951e+00
1.805113037110000050e+03 4.328472595200000228e+02 -1.825188400000000044e+00
1.809368896480000103e+03 4.260667114299999980e+02 -9.010043699999999989e-01
1.805313110349999988e+03 4.329627685500000212e+02 -1.164170029999999967e+00
1.809432495120000112e+03 4.261034851100000083e+02 3.867162499999999836e-01
1.805419067379999888e+03 4.330239563000000089e+02 -5.425835300000000361e-01
1.809316894529999900e+03 4.260366821299999742e+02 1.148581389999999924e+00
1.805380859379999947e+03 4.330018615700000169e+02 8.311093400000000297e-01
1.809080322269999897e+03 4.259002075199999808e+02 1.906599280000000007e+00
1.805269287110000050e+03 4.329374084500000208e+02 1.349009750000000007e+00
1.808632690429999911e+03 4.256417236300000013e+02 2.756004809999999861e+00
1.805010375979999935e+03 4.327879638699999987e+02 2.068638560000000126e+00
1.806510131839999985e+03 4.244162292500000149e+02 4.361379620000000124e+00
1.805548828129999947e+03 4.238611755399999765e+02 4.500024800000000269e+00
1.802499755860000050e+03 4.313384704599999964e+02 4.364535329999999824e+00
1.807011230470000100e+03 4.247055664100000172e+02 4.175202849999999799e+00
1.803143554689999974e+03 4.317101135300000010e+02 4.108406539999999829e+00
1.807755737299999964e+03 4.251354064899999798e+02 3.711042169999999807e+00
1.803756225589999985e+03 4.320639038099999993e+02 3.710181239999999825e+00
